ply
format ascii 1.0
element vertex 1299
property float x
property float y
property float z
property uchar red
property uchar green
property uchar blue
end_header
-1.0683 -1.16654 7.46293 103 78 52
-1.10295 -1.08426 7.45518 115 106 72
-1.08189 -1.07493 7.46432 92 80 58
-1.09466 -0.996872 7.24109 103 84 74
-1.09295 -0.992144 7.25141 87 68 60
-2.70954 -1.11676 7.50613 99 72 50
-2.70953 -1.10999 7.51923 126 94 73
-2.69169 -1.11093 7.55148 85 57 20
-2.69695 -1.10114 7.52066 131 98 68
-2.29223 -1.09729 7.69949 62 36 6
-0.931985 -0.926197 7.56198 90 48 15
-0.903565 -0.927282 7.59152 86 50 12
-0.943876 -0.920651 7.5587 172 138 99
-2.23919 -1.00012 7.69264 156 136 93
-0.4888 -0.798743 7.51872 71 38 20
-2.25363 -0.969301 7.73016 165 120 82
-0.973502 -0.831108 7.62552 120 90 52
-0.933678 -0.828771 7.73213 162 134 96
-2.28399 -0.926247 7.76223 98 64 25
-1.0992 -0.759993 7.47641 165 132 108
-0.835611 -0.719515 7.41731 97 79 62
-2.38414 -0.921821 7.99105 90 65 26
-0.8154 -0.717643 7.46551 100 83 66
-3.02746 -0.907342 7.70053 150 138 106
-1.12619 -0.712129 7.48169 52 21 3
-2.5018 -0.865212 7.81702 94 68 31
-1.13368 -0.712668 7.5031 86 69 30
-0.877968 -0.694501 7.6513 127 133 94
-2.26222 -0.789762 7.57054 131 84 53
-0.939783 -0.6675 7.51866 82 88 51
-2.28828 -0.770511 7.57718 104 62 30
-2.32123 -0.754179 7.46284 161 118 88
-0.805333 -0.562979 7.315 55 50 56
-0.848203 -0.572663 7.78954 40 20 4
-0.870717 -0.565824 7.7796 32 14 2
-0.82111 -0.56097 7.816 58 46 26
-0.759567 -0.510588 7.30024 62 34 28
-0.718858 -0.47282 7.4325 145 95 81
-0.780593 -0.505814 7.93969 66 64 32
-1.10164 -0.480623 7.7335 40 23 6
-2.49253 -0.583252 7.37024 76 26 10
-0.749358 -0.416561 7.31312 46 18 2
-2.83131 -0.621521 7.65023 80 32 18
-0.692272 -0.39608 7.26611 102 83 57
-3.03484 -0.580954 6.92326 158 126 124
-0.934688 -0.404485 7.451 74 29 9
-3.04729 -0.564063 6.92476 152 123 121
-0.983063 -0.390391 7.44015 98 81 70
-0.701974 -0.366898 7.43927 46 31 18
-3.1971 -0.570359 6.93248 166 89 82
-0.632578 -0.346668 7.44896 154 129 104
-3.04385 -0.546317 7.06256 152 110 92
-0.625947 -0.330925 7.4993 160 138 114
-0.960582 -0.315682 7.50584 164 142 127
-1.10652 -0.183583 7.58984 144 114 111
-2.23716 -0.216914 7.87217 154 102 76
-1.94641 -0.208721 7.59066 170 125 108
-3.06456 -0.34258 7.05693 28 22 35
-3.10929 -0.339806 7.03642 108 102 114
-1.96976 -0.187515 7.28472 146 102 92
-1.99099 -0.172346 7.23606 214 190 180
-1.58224 -0.133315 7.22179 146 130 117
-2.05846 -0.166281 7.36 152 126 116
-1.59203 -0.104268 7.30435 142 126 118
-1.97668 -0.144932 7.25823 153 106 96
-1.89228 -0.117515 7.13977 70 54 49
-1.7079 -0.0846426 7.15247 107 91 86
-1.72921 -0.0589272 7.13941 94 76 68
-3.1403 -0.182564 7.20226 162 117 104
-3.1831 -0.180951 7.11854 140 80 36
-3.17208 0.0920018 7.16311 122 23 24
-1.18288 -1.1088 7.27108 152 134 90
-1.11793 -1.04626 7.30256 96 82 65
-0.924414 -0.922649 7.55714 94 50 16
-0.931511 -0.92285 7.60908 174 146 102
-0.917763 -0.876042 7.52335 110 78 34
-0.931543 -0.829634 7.73598 166 144 103
-0.842392 -0.781049 7.51666 154 149 110
-0.947629 -0.816841 7.74973 119 77 43
-0.830923 -0.716336 7.43974 102 84 68
-1.95301 -0.810997 7.61538 139 102 72
-3.03583 -0.912949 7.72762 148 135 102
-2.50304 -0.868987 7.87245 94 68 31
-2.43332 -0.867462 7.96844 66 31 4
-1.07868 -0.653539 7.57521 140 106 76
-0.994164 -0.6367 7.56451 56 22 4
-1.09343 -0.60232 7.5517 148 104 76
-0.835892 -0.574283 7.78369 60 48 27
-0.824018 -0.546781 7.65397 89 74 54
-0.815475 -0.543875 7.84391 146 134 112
-2.28542 -0.61283 7.62962 98 47 27
-1.02817 -0.480644 7.65981 77 56 42
-1.08507 -0.487875 7.74663 160 134 116
-0.745677 -0.433375 7.32803 82 50 26
-2.49576 -0.58699 7.43539 76 26 10
-0.632225 -0.424335 7.49496 126 94 73
-3.04415 -0.603123 6.93383 155 104 106
-0.742751 -0.404274 7.36115 32 18 4
-0.65985 -0.378545 7.47949 33 18 6
-0.562987 -0.352696 7.61874 78 52 28
-3.02917 -0.534707 7.09461 86 42 22
-1.07386 -0.262159 7.42458 178 134 112
-2.2606 -0.242684 7.69796 199 146 124
-1.97146 -0.222641 7.39431 173 124 108
-1.9851 -0.169325 7.28048 177 146 135
-2.03627 -0.146054 7.60796 120 96 83
-1.96505 -0.139295 7.33643 146 110 100
-2.06173 -0.144456 7.3194 90 65 56
-1.98956 -0.129277 7.35387 144 114 101
-1.77883 -0.117064 7.14245 156 128 120
-1.89864 -0.105157 7.1994 87 70 63
-1.70979 -0.0803251 7.13529 166 150 148
-1.96822 0.0201156 7.34758 84 18 10
-3.1641 -0.110058 7.28189 149 104 92
-3.18616 -0.0597974 7.2461 126 53 25
-0.741881 -1.01459 7.12583 253 242 238
-1.10055 -1.12103 7.46448 123 85 47
-1.11018 -1.03887 7.44428 110 96 54
-2.69828 -1.12091 7.57993 75 48 16
-0.913056 -0.913683 7.57079 175 150 106
-1.95505 -0.985113 7.68239 108 100 55
-0.82703 -0.801365 7.54026 108 108 68
-1.92333 -0.886249 7.66384 83 66 24
-2.29335 -0.890138 7.51563 100 66 28
-2.35242 -0.908438 7.95249 108 66 38
-0.858534 -0.718836 7.47613 82 68 52
-2.93887 -0.880335 7.57346 106 60 44
-2.99625 -0.883483 7.58484 128 112 78
-1.1102 -0.719382 7.55013 96 76 39
-2.48467 -0.877796 7.9722 134 124 82
-0.867962 -0.680054 7.66181 90 95 55
-3.00227 -0.816084 7.56649 120 94 64
-0.711681 -0.582371 7.33308 82 22 2
-0.874626 -0.616706 7.67507 164 159 132
-1.11561 -0.610023 7.42526 57 22 10
-0.807059 -0.562003 7.84173 90 78 58
-1.08485 -0.553637 7.58234 172 146 122
-0.861545 -0.549493 7.76656 46 29 10
-0.984668 -0.521216 7.65905 122 108 74
-2.28433 -0.610788 7.58948 94 44 23
-2.51244 -0.617038 7.77401 64 14 2
-2.50035 -0.586394 7.44773 82 32 14
-0.577128 -0.391608 7.44166 108 88 62
-2.61496 -0.557509 7.45921 114 67 50
-0.958334 -0.406242 7.40374 88 38 16
-0.962128 -0.403999 7.44735 78 56 48
-0.643011 -0.369845 7.34802 162 139 113
-0.646916 -0.366943 7.52873 26 17 10
-0.555884 -0.349881 7.47343 66 36 14
-0.532465 -0.337063 7.52525 162 136 118
-0.678365 -0.33961 7.34747 170 142 126
-0.934215 -0.357531 7.45997 156 132 118
-0.579863 -0.320572 7.45894 53 34 22
-1.00989 -0.345063 7.53807 93 79 60
-0.878174 -0.181463 7.36453 151 106 84
-1.97589 -0.220397 7.38476 172 128 113
-2.06531 -0.171121 7.40995 88 66 50
-1.97807 -0.159908 7.41562 168 138 125
-1.55695 -0.128055 7.29835 152 136 122
-2.05025 -0.148881 7.43855 93 67 59
-1.97057 -0.143642 7.30875 142 114 104
-3.14341 -0.182553 7.21224 166 122 110
-3.14387 -0.156076 7.23761 136 99 80
-3.14848 -0.134815 7.26148 85 14 6
-3.17941 -0.116723 7.2406 108 28 10
-3.15797 -0.110245 7.26857 143 104 92
-3.18489 -0.0591717 7.2375 136 69 33
-3.1759 0.0924118 7.17167 130 36 39
-0.795994 -0.99446 7.06401 88 65 59
-0.990169 -0.89152 7.42599 153 114 74
-0.894898 -0.872561 7.56737 107 72 30
-0.86151 -0.762684 7.46008 130 110 82
-1.95549 -0.813903 7.61713 148 108 79
-1.1503 -0.705273 7.41445 66 32 14
-2.48609 -0.879462 7.9947 132 120 79
-1.0913 -0.706828 7.53873 163 130 110
-1.0983 -0.685776 7.48386 74 44 30
-2.32106 -0.759189 7.46551 165 120 88
-3.00642 -0.801108 7.57236 120 96 66
-0.889684 -0.609266 7.66741 122 118 92
-0.86543 -0.603852 7.59959 164 150 124
-2.34203 -0.658186 7.40271 173 122 106
-0.992496 -0.55185 7.64619 78 50 22
-0.866841 -0.557308 7.82229 162 150 125
-1.09087 -0.552186 7.56281 170 142 118
-0.779016 -0.549487 7.89983 164 153 132
-1.0734 -0.524891 7.63865 65 42 9
-2.28236 -0.613224 7.61121 94 44 23
-2.38442 -0.604036 7.41792 171 116 95
-2.49506 -0.593786 7.51939 78 28 13
-2.49873 -0.583733 7.39018 106 56 37
-2.48849 -0.584404 7.43704 108 60 45
-0.582913 -0.365595 7.44688 177 152 129
-0.984921 -0.383168 7.45772 160 132 119
-0.50646 -0.34755 7.70678 82 54 30
-0.615694 -0.339506 7.40163 172 146 128
-0.661883 -0.321031 7.33324 42 26 16
-1.97434 -0.189935 7.27352 140 104 92
-2.03186 -0.117402 7.6696 119 96 86
-3.11869 -0.248699 7.102 24 16 30
-3.14039 -0.182441 7.20131 166 122 110
-3.17867 -0.179864 7.12121 143 81 36
-3.16345 -0.12148 7.19661 102 16 6
-3.16619 -0.109011 7.28702 144 102 90
-3.1215 -0.0757995 7.28247 127 60 22
-3.16907 -0.0695036 7.25325 147 106 92
-3.25877 -0.0811249 7.19415 173 108 84
-3.1737 -0.0633905 7.20636 130 70 30
-3.2468 -0.0488799 7.22756 187 107 64
-3.23702 -0.0296195 7.22531 163 80 29
-3.10379 0.0725432 7.26187 122 72 68
-1.07097 -1.17354 7.44239 144 122 99
-1.19358 -0.890182 6.99659 148 118 105
-0.914661 -0.88306 7.05876 119 94 82
-2.90446 -1.09468 7.44923 106 68 46
-1.05123 -0.87203 7.11778 96 58 27
-0.949156 -0.888507 7.66652 138 113 66
-1.95543 -0.821238 7.66414 158 112 86
-3.02502 -0.900224 7.65935 154 142 114
-1.09596 -0.677997 7.32755 137 98 82
-1.02672 -0.671495 7.71904 105 76 44
-2.9384 -0.699417 7.52425 80 38 17
-1.01432 -0.517049 7.59591 119 102 71
-2.47278 -0.62105 7.3791 76 28 12
-2.36907 -0.612304 7.39188 94 38 20
-1.08331 -0.506808 7.73775 40 13 2
-2.49645 -0.620373 7.67197 117 68 52
-2.48386 -0.581069 7.36096 145 96 80
-2.88382 -0.624453 7.67568 90 48 32
-2.44474 -0.575368 7.52489 152 136 112
-1.12905 -0.448168 7.64473 74 56 37
-0.67468 -0.355926 7.44361 90 64 38
-0.607103 -0.354645 7.47514 53 30 16
-0.998916 -0.344637 7.56975 106 89 72
-1.83234 -0.358672 8.0095 109 81 52
-1.16262 -0.250271 7.64428 168 137 120
-2.06124 -0.125083 7.38154 126 100 90
-1.95989 -0.0914454 7.59125 153 86 70
-3.05725 -0.216384 7.16873 141 71 34
-3.15739 -0.176596 7.18786 162 120 102
-3.17697 -0.183525 7.10569 135 72 34
-3.14368 -0.132221 7.25163 86 8 2
-3.16383 -0.12067 7.19536 108 22 8
-3.25104 -0.0970921 7.18639 142 46 34
-3.22269 -0.100301 7.16483 164 71 43
-3.25882 -0.0416324 7.25833 186 108 62
-3.23024 -0.0297714 7.21703 168 84 36
-3.18439 0.0937057 7.18783 134 27 30
-1.16826 -1.04614 7.28787 106 96 75
-1.07985 -0.943216 7.23068 152 125 112
-2.40124 -0.918884 8.03916 96 63 29
-1.95943 -0.816541 7.6504 151 106 78
-2.45184 -0.836693 7.63836 117 97 60
-1.0024 -0.688431 7.49301 10 6 2
-3.07785 -0.744342 6.89183 57 52 58
-2.31402 -0.732144 7.497 78 40 16
-2.2679 -0.709325 7.48643 148 95 66
-0.813764 -0.61126 7.72674 162 152 127
-2.31532 -0.686186 7.37588 135 86 70
-2.28236 -0.698856 7.50988 94 44 22
-2.33267 -0.686173 7.51146 78 32 12
-0.848948 -0.556639 7.61704 112 94 76
-2.33803 -0.662372 7.42845 173 122 106
-0.900135 -0.560916 7.77524 160 149 128
-2.66198 -0.667262 7.39963 125 80 52
-1.01001 -0.495724 7.44889 56 60 31
-2.51337 -0.613495 7.40878 82 32 20
-2.38532 -0.599975 7.43727 170 114 94
-2.47216 -0.598284 7.37788 60 15 3
-2.02992 -0.225111 7.99938 142 104 84
-1.91654 -0.24746 7.17514 60 10 3
-1.96263 -0.203956 7.5411 162 132 118
-1.97655 -0.155623 7.26165 138 113 106
-3.11084 -0.251633 7.09023 19 14 28
-3.05554 -0.233535 7.15637 76 2 2
-3.14078 -0.180477 7.19366 160 128 116
-3.15862 -0.17787 7.19288 162 125 104
-3.14363 -0.130207 7.25166 86 7 2
-3.14071 -0.126533 7.17358 151 127 114
-3.17325 -0.111872 7.21704 108 18 4
-3.12025 -0.0732486 7.29153 133 70 22
-3.17719 -0.0716627 7.26399 150 100 88
-3.26858 -0.0798659 7.21705 161 114 92
-3.27508 -0.0618762 7.22617 130 49 34
-3.23726 -0.0492079 7.2068 182 108 56
-3.08947 0.0626349 7.22009 114 64 59
-3.18751 0.0946938 7.19718 135 30 32
-0.939873 -1.01757 6.9696 112 16 8
-2.75769 -1.1647 7.42562 66 50 17
-1.08025 -0.947431 7.24583 154 126 114
-2.04444 -0.983637 7.74278 114 65 51
-2.28412 -0.930518 7.72255 104 68 28
-0.846634 -0.724217 7.504 106 86 70
-2.40323 -0.905032 7.9323 96 66 28
-1.15146 -0.711387 7.31581 108 84 68
-2.51072 -0.870256 7.93148 108 72 40
-0.865365 -0.636279 7.34588 122 93 82
-2.32136 -0.781692 7.61644 168 118 87
-2.45136 -0.716971 7.25532 106 72 36
-2.31326 -0.730579 7.46967 78 38 14
-0.909831 -0.617497 7.72755 144 130 109
-0.837677 -0.572897 7.79785 68 52 32
-2.36884 -0.629042 7.38033 181 124 106
-0.890564 -0.514848 7.83195 120 108 76
-0.815095 -0.4983 7.83742 58 64 36
-2.38544 -0.599587 7.53248 159 102 82
-1.11913 -0.431786 7.7792 134 84 55
-2.63638 -0.556608 7.53185 102 54 33
-2.81769 -0.524191 7.15254 129 36 29
-2.83882 -0.485304 7.22487 128 25 20
-2.99094 -0.410413 7.10307 170 138 118
-1.97313 -0.158635 7.31091 126 102 95
-3.15319 -0.127389 7.28371 88 6 6
-3.15153 -0.128267 7.19775 154 131 117
-3.11432 -0.0731599 7.28256 132 70 19
-3.19564 -0.0650064 7.31252 132 61 55
-3.20627 -0.0397538 7.27811 136 80 26
-2.0652 -1.13148 7.66752 72 38 24
-2.84885 -1.12075 7.43879 126 85 65
-1.08065 -0.935342 7.1908 104 64 38
-1.07753 -0.918726 7.16126 171 138 128
-2.06868 -0.922336 7.59223 50 18 12
-1.98693 -0.851525 7.50907 32 13 8
-3.02537 -0.895526 7.64739 154 142 114
-1.92684 -0.817567 7.68731 96 68 34
-1.15889 -0.709394 7.416 107 80 52
-2.51012 -0.873566 7.95702 94 59 26
-2.97457 -0.839237 7.47874 154 143 120
-1.95828 -0.771135 7.67025 147 130 104
-1.97138 -0.748035 7.70954 104 70 43
-2.36018 -0.735367 7.51192 144 104 86
-1.00599 -0.655069 7.85475 163 152 128
-0.98588 -0.642442 7.67106 145 107 90
-2.65914 -0.749141 7.50742 91 47 26
-1.11017 -0.616535 7.50082 91 44 17
-0.897835 -0.542552 7.65663 163 153 132
-0.974036 -0.5458 7.70668 90 59 35
-0.929493 -0.500386 7.29802 64 19 8
-2.96542 -0.690217 7.60396 156 144 124
-2.50039 -0.60632 7.49226 170 117 102
-2.84366 -0.636889 7.6802 58 17 11
-2.85641 -0.565075 7.19204 108 40 26
-2.81526 -0.508735 7.1362 127 28 21
-2.84742 -0.494675 7.26806 130 17 15
-0.849043 -0.307077 7.49336 160 126 104
-1.96697 -0.27008 7.84582 161 114 90
-1.95701 -0.19499 7.65333 160 130 116
-2.33072 -0.193303 7.74617 201 150 108
-1.9928 -0.174329 7.41508 162 136 122
-1.56752 -0.138767 7.21738 90 68 52
-1.538 -0.0896336 7.32875 92 68 58
-3.17975 -0.163667 7.29346 160 132 120
-3.15124 -0.123823 7.27572 89 8 6
-3.18015 -0.113183 7.23595 121 56 22
-2.99593 0.0249818 7.27172 122 28 26
-3.1883 0.0909174 7.20241 134 16 18
-1.05218 -0.618023 7.4252 81 50 32
-2.48 -0.588803 7.41894 136 90 74
-3.04043 -0.599178 6.9357 142 90 88
-3.16871 -0.121983 7.21266 100 16 6
-3.23731 -0.0852142 7.4443 141 93 78
-1.88296 0.0435692 7.31892 149 104 104
-1.1027 -0.567007 7.11819 142 126 100
-0.948034 -0.0625098 7.43742 134 63 62
-3.23186 -0.0938227 7.18353 167 74 50
-2.24196 -1.1537 7.62738 170 114 92
-1.13021 -0.465434 7.80744 130 104 78
-0.805027 -0.361804 7.46371 172 152 141
-2.73825 -1.1217 7.56532 150 103 79
-1.08065 -0.624815 7.61219 147 119 96
-3.06179 -0.605365 6.94321 150 95 98
-1.15994 -0.247416 7.6604 167 140 124
-3.23878 -0.0934471 7.19614 170 84 51
-2.12084 -1.1767 7.59582 95 54 38
-0.80196 -0.75485 7.5117 150 126 110
-2.76176 -0.889753 7.56402 118 64 38
-1.80653 0.0841961 7.36245 58 22 20
-2.89921 -0.762632 7.56575 106 60 41
-3.09512 -0.330459 7.09388 20 15 34
-2.98985 -0.891511 7.57837 98 72 40
-0.781038 -0.44062 7.42629 128 101 85
-2.45154 -0.571421 7.8338 142 122 100
-0.990351 -0.633128 7.57477 53 21 4
-0.875869 -0.502471 7.39827 61 15 3
-0.869622 -0.31458 7.51695 94 59 38
-3.11431 -0.33856 7.04586 108 102 114
-0.713963 -0.443518 7.41739 78 38 20
-3.11112 -0.254066 7.08432 29 14 25
-3.10362 -0.255802 7.11211 35 17 29
-2.36901 -0.653626 7.43571 72 22 13
-0.77063 -0.336529 7.43068 139 96 66
-0.529988 -0.436553 8.08323 138 94 76
-0.831137 -0.34562 7.42864 62 48 40
-0.888353 -0.878183 7.02902 147 123 115
-1.88892 -0.0935953 7.14641 48 30 22
-2.28798 -1.14921 7.70564 141 126 92
-0.93998 -0.365674 7.46377 34 20 14
-2.47013 -0.599009 7.40054 61 16 2
-3.18978 -0.0871827 7.32965 102 48 38
-3.17132 -0.0902874 7.28743 106 46 37
-2.83895 -1.10457 7.45088 112 70 50
-2.2715 -1.21589 7.7819 120 106 68
-2.38782 -0.586045 7.42833 152 97 78
-0.597019 -0.321684 7.42648 60 42 28
-2.06434 -0.163007 7.31085 90 64 57
-1.57138 -0.10618 7.29318 133 120 110
-2.0642 -0.140748 7.32115 91 64 56
-3.18824 -0.0906447 7.32156 104 50 40
-3.17659 -0.075832 7.25439 148 98 88
-3.19573 -0.0408713 7.33887 131 79 67
-2.26857 -1.21386 7.73773 114 104 63
-2.27326 -1.20513 7.74548 136 124 84
-2.02205 -0.681291 7.77269 100 68 40
-1.98918 -0.146004 7.20856 130 55 48
-3.19005 -0.090934 7.32929 122 78 66
-3.15115 -0.0666285 7.21964 124 76 66
-2.60477 -0.625071 7.36787 199 142 122
-2.3827 -0.60719 7.4301 168 112 94
-2.4781 -0.584081 7.38267 138 93 78
-2.41306 -0.586246 7.54084 154 129 106
-1.98351 -0.204677 7.23474 136 42 32
-3.1963 -0.0682766 7.30901 151 103 94
-3.15332 -0.0680628 7.22217 138 95 83
-0.881536 -0.688948 7.19361 194 110 80
-1.73895 -0.953541 9.44084 152 146 112
-2.03517 -0.712338 7.5352 50 20 8
-2.41693 -0.585658 7.56373 152 128 106
-1.98836 -0.143523 7.21329 136 48 40
-3.18468 -0.0724827 7.27489 148 98 88
-2.42418 -0.583506 7.5878 149 133 108
-2.83291 -0.526256 7.2357 120 35 26
-3.12824 -0.072637 7.30279 132 58 24
-2.70717 -1.018 7.40609 110 54 32
-2.28399 -0.758938 7.49479 102 60 30
-2.82481 -0.521945 7.20677 128 50 40
-1.95166 -0.331327 7.36175 142 46 34
-2.93315 -0.233921 7.72214 180 130 106
-3.17986 -0.232617 7.06533 28 16 22
-3.14237 -0.172782 7.14061 152 120 98
-1.86471 -0.0856599 7.14543 138 121 116
-2.38462 -0.607199 7.5635 176 120 101
-1.93762 -0.273553 7.74015 158 113 90
-1.86162 -0.0997435 7.11879 141 127 120
-1.88791 -0.088695 7.15069 34 16 8
-3.1597 -0.0921976 7.21883 144 105 92
-2.12885 -1.20435 7.57882 89 59 42
-2.21656 -1.18342 7.62536 128 86 69
-2.8834 -1.11051 7.4516 134 90 68
-2.85625 -1.08337 7.41288 161 116 91
-2.85693 -1.05117 7.41554 94 58 44
-2.90485 -1.02125 7.44465 150 108 87
-2.28602 -0.919422 7.73045 100 64 26
-1.94621 -0.873112 7.66951 43 18 2
-1.9436 -0.862301 7.66729 133 110 86
-2.50637 -0.887548 7.87292 158 146 112
-2.97668 -0.836694 7.5781 48 16 4
-2.02449 -0.766479 7.68531 171 118 94
-2.36186 -0.610861 7.41145 102 46 30
-1.69566 -0.101596 7.15518 159 118 116
-1.70773 -0.0825827 7.16483 162 146 142
-2.08147 -1.10314 7.6026 116 78 56
-2.27424 -1.12823 7.69628 38 13 6
-2.87058 -1.09868 7.40926 144 100 76
-2.76974 -1.09285 7.44478 104 64 48
-2.71456 -1.06199 7.47398 68 28 17
-2.99512 -0.875771 7.58255 130 110 84
-1.92395 -0.79172 7.67243 128 116 82
-2.9543 -0.698109 7.58969 122 93 74
-1.12517 -0.198984 7.59555 158 107 102
-0.868469 -0.0772639 7.41599 123 112 108
-0.884894 -0.0281632 7.43687 186 135 105
-1.85742 -0.133337 7.13923 132 92 86
-1.90811 -0.11964 7.18388 209 190 182
-1.93557 0.0587084 7.34024 110 81 75
-2.16882 -1.19727 7.5907 114 82 64
-2.11603 -1.09977 7.58947 95 56 44
-2.22305 -1.09216 7.57819 104 39 16
-2.70459 -1.12498 7.62849 69 42 10
-2.88678 -1.00908 7.39104 152 106 85
-2.81474 -0.942082 7.50486 141 83 66
-2.0132 -0.894877 7.62573 150 101 84
-2.80016 -0.907204 7.55294 142 86 64
-2.80515 -0.899047 7.55139 172 116 92
-2.99509 -0.874299 7.58398 100 74 48
-2.50367 -0.87236 7.88773 96 66 34
-2.98277 -0.844849 7.57952 162 142 121
-1.96069 -0.763749 7.67286 82 62 38
-2.96704 -0.80767 7.58182 175 120 90
-1.99043 -0.718073 7.67677 100 64 40
-2.99487 -0.752756 7.60726 107 80 59
-2.70782 -1.13163 7.61221 62 38 8
-2.71712 -1.06464 7.47168 54 17 6
-2.86949 -1.05927 7.40973 164 116 92
-2.80147 -0.977685 7.4451 160 100 79
-2.01385 -0.897718 7.64227 151 102 84
-2.97703 -0.928712 7.59021 118 102 70
-2.99419 -0.92809 7.62079 152 142 115
-2.03406 -0.834812 7.63687 166 118 102
-2.99651 -0.890214 7.58708 135 118 94
-2.51054 -0.899166 7.88061 156 146 112
-1.9543 -0.814909 7.64667 144 100 76
-2.97069 -0.879327 7.58411 160 110 86
-2.99703 -0.87562 7.58565 108 84 58
-2.48364 -0.873087 7.93196 148 132 104
-1.96007 -0.755967 7.68533 90 72 47
-3.00742 -0.808161 7.57316 109 89 64
-3.00865 -0.799272 7.57695 136 114 90
-2.89405 -0.766269 7.58909 98 50 36
-1.79357 -0.0693521 7.17481 150 102 96
-2.08148 -1.10139 7.58793 109 70 48
-2.66432 -0.981824 7.55553 154 136 93
-1.95743 -0.816085 7.64609 152 106 82
-2.9914 -0.874337 7.56398 116 92 66
-2.48758 -0.877318 7.92262 162 148 121
-2.97257 -0.840535 7.58588 34 10 4
-1.97916 -0.778871 7.69169 32 8 2
-2.94351 -0.749129 7.58431 163 108 87
-2.95336 -0.660525 7.63554 124 96 71
-2.51001 -0.214063 7.67092 76 45 36
-2.23088 -0.997358 7.73691 62 20 4
-2.97782 -0.922545 7.57043 130 121 84
-2.44921 -0.849218 7.93543 72 30 12
-1.96776 -0.743867 7.68331 86 64 40
-0.948112 -0.108075 7.66712 230 211 206
-2.42927 -0.209884 7.76778 85 38 20
-1.80572 0.0713004 7.3677 57 16 16
-2.14423 -0.975345 7.68461 154 102 80
-1.94458 -0.869277 7.68349 26 8 0
-3.00746 -0.800367 7.57862 110 90 65
-2.66685 -0.758492 7.52388 94 51 27
-2.13303 -0.676879 7.6601 92 46 30
-2.83694 -0.504076 7.23938 127 18 16
-1.79846 -0.0688743 7.16926 150 70 68
-2.11263 -1.07347 7.5999 146 96 72
-2.23046 -0.996071 7.73447 70 26 8
-1.97194 -0.873083 7.66418 24 6 2
-2.12466 -0.684772 7.68502 94 48 32
-1.83859 0.0995979 7.35012 52 22 19
-2.85614 -1.12435 7.43296 116 78 54
-2.27168 -1.11141 7.66843 150 100 78
-2.79819 -1.06371 7.43747 117 65 48
-2.97904 -0.847734 7.56333 132 105 85
-0.82149 -0.163974 7.39894 126 81 61
-3.04514 -0.26645 7.13541 54 22 29
-1.55601 -0.0283843 7.71089 64 49 40
-2.68194 -1.00674 7.47607 94 34 16
-0.663599 -0.349069 7.89853 32 14 4
-1.05269 -0.492729 7.61792 152 124 108
-2.66446 -0.90067 7.58632 128 88 66
-1.93162 -0.0928003 7.1754 167 145 137
-2.83679 -0.481749 7.21985 122 28 24
-2.43552 -0.213551 7.78387 75 30 14
-2.12667 -0.95639 7.6752 112 64 44
-2.97583 -0.840793 7.59061 44 14 4
-2.913 -0.815226 7.57142 103 58 40
-2.32479 -0.688031 7.38228 111 65 48
-2.47473 -0.202531 7.78028 113 82 73
-2.6131 -0.665833 7.50865 151 97 74
-2.41752 -0.311525 7.80804 149 98 79
-0.706122 -1.30142 7.19443 164 118 88
-0.753344 -1.28791 7.19678 173 122 92
-0.799012 -1.2881 7.20602 158 129 92
-2.08291 -1.10002 7.59652 112 70 50
-2.71276 -1.0603 7.46816 60 20 10
-2.67218 -0.925843 7.59014 66 26 4
-2.06425 -0.847228 7.64172 103 58 45
-2.97169 -0.76341 7.5891 46 12 2
-0.788717 -0.474154 7.31719 146 104 92
-2.93988 -0.648529 7.65562 100 67 45
-2.51718 -0.601398 7.35163 94 40 24
-2.8954 -0.528891 7.16472 148 66 36
-1.61966 -0.127589 7.20728 77 60 50
-1.63447 -0.123546 7.17362 116 96 88
-3.04976 -0.212854 7.18241 122 48 14
-1.71455 -0.0872125 7.18415 114 100 94
-3.05955 -0.21238 7.15527 113 33 8
-1.72493 -0.0829761 7.18174 104 92 86
-1.01828 -0.923648 7.12556 140 96 89
-2.94209 -0.649654 7.65705 92 53 32
-0.74247 -0.441881 7.3966 77 35 19
-0.805674 -0.332663 7.47378 50 34 25
-0.919317 -0.088224 7.45778 87 92 80
-2.6187 -0.17439 7.6815 148 98 80
-1.72294 -0.0693114 7.15772 62 42 36
-1.87184 -0.0788648 7.15363 72 48 41
-1.9467 0.0494547 7.35137 102 72 66
-2.71562 -1.06334 7.47326 56 16 8
-2.67581 -0.928377 7.587 57 20 3
-2.66188 -0.900467 7.59394 128 90 63
-2.2659 -0.667081 7.48206 75 24 5
-1.81414 -0.182404 7.14649 68 40 30
-1.74526 0.0611417 8.21083 146 84 78
-1.75111 -0.0804838 7.16219 153 134 128
-1.94608 0.050284 7.35195 104 74 66
-0.789074 -1.28033 7.20105 142 90 60
-2.19146 -0.962596 7.66468 205 152 119
-1.92764 -0.924834 7.64793 98 84 38
-2.02688 -0.721391 7.70827 25 7 4
-2.55961 -0.656001 7.36536 78 24 8
-2.50683 -0.632929 7.34724 152 103 90
-1.15003 -0.239603 7.72105 165 136 119
-1.88482 -0.0706519 7.1797 44 24 18
-2.04563 -0.96992 7.67667 125 78 60
-2.80586 -0.902124 7.57071 192 132 104
-3.00018 -0.879779 7.59898 107 80 55
-2.25283 -0.780751 7.56056 118 70 43
-2.24411 -0.657241 7.49814 141 94 72
-2.67105 -0.64597 7.37444 150 98 72
-2.3147 -0.566537 7.73159 178 130 106
-0.706811 -0.394859 7.3729 89 65 50
-0.591715 -0.365305 7.46704 182 154 134
-2.92451 -0.242584 7.70218 178 128 106
-2.53309 -0.150852 7.7203 74 40 28
-1.0879 -1.23006 7.40245 132 104 77
-1.94008 -0.922437 7.64983 98 67 30
-2.35262 -0.898834 7.82879 126 87 58
-2.02727 -0.832064 7.62984 148 100 79
-2.03996 -0.769953 7.65603 148 96 73
-2.91317 -0.195769 7.62109 196 142 113
-2.07973 -1.11022 7.60739 90 53 38
-1.93295 -0.917485 7.66465 98 67 34
-2.0453 -0.872455 7.6113 62 22 12
-2.51026 -0.696741 7.3734 145 88 59
-2.35361 -0.644954 7.39081 80 28 14
-0.787311 -0.430754 7.40478 108 70 50
-1.54137 -0.125546 7.29842 114 92 77
-0.895865 -0.978626 6.9093 245 230 220
-2.2716 -1.18807 7.68874 141 127 90
-2.27874 -1.14964 7.73764 164 114 86
-2.68491 -1.09407 7.42418 103 74 56
-2.70717 -1.10634 7.54314 120 88 64
-2.70307 -1.08966 7.50268 70 36 16
-2.6769 -1.00475 7.46124 88 30 14
-3.01239 -0.813714 7.59049 112 87 62
-2.89555 -0.769166 7.61096 86 46 37
-2.94504 -0.739165 7.56006 171 116 90
-2.30375 -0.633419 7.4695 86 34 18
-2.85922 -0.667489 7.62544 64 25 14
-2.78003 -0.60423 7.44977 166 127 104
-2.4501 -0.555726 7.9065 137 112 95
-2.85969 -0.567414 7.22486 130 82 66
-2.25389 -0.220836 7.74471 159 105 76
-2.62563 -0.234935 7.5904 194 140 104
-0.835288 -0.939201 6.87615 202 184 180
-2.25703 -1.14833 7.63749 68 29 8
-2.28821 -1.16618 7.72846 102 90 50
-2.70503 -1.10964 7.49186 73 50 35
-2.24307 -1.10213 7.61527 140 78 54
-2.69036 -1.1102 7.58691 82 53 14
-2.40552 -0.935273 8.09582 98 70 30
-2.49997 -0.873303 7.85784 90 64 31
-2.24787 -0.812745 7.58662 134 85 58
-2.26251 -0.711382 7.46618 136 88 60
-2.26376 -0.665323 7.47278 68 18 2
-2.30351 -0.634665 7.46538 98 47 32
-2.86348 -0.65794 7.61686 108 68 56
-2.85095 -0.625927 7.53364 92 61 43
-2.41922 -0.591553 7.82773 87 40 26
-2.95856 -0.447878 7.16726 163 138 106
-3.05071 -0.216596 7.15853 134 78 40
-0.914867 -0.973834 6.91761 158 130 117
-2.24219 -1.1566 7.49698 135 126 82
-2.2589 -1.12073 7.65689 65 22 2
-2.40565 -0.934376 8.08721 90 61 23
-2.50244 -0.893846 8.05681 146 130 99
-2.48054 -0.878802 7.96768 160 145 118
-1.91747 -0.799798 7.66869 146 136 102
-2.39904 -0.847002 7.94668 124 74 44
-2.33553 -0.77468 7.63475 132 90 66
-3.00219 -0.73078 7.617 104 76 49
-2.83283 -0.650791 7.56158 68 24 12
-2.38475 -0.60488 7.42057 154 101 86
-2.90033 -0.653711 7.67971 38 12 3
-2.886 -0.625086 7.68874 81 46 29
-2.42508 -0.593235 7.86887 102 54 39
-2.85913 -0.615376 7.68662 166 127 104
-2.45218 -0.559709 7.90557 146 128 105
-2.88527 -0.466304 7.15792 124 20 6
-1.94496 -0.333289 7.41337 143 71 56
-2.27011 -1.18268 7.66748 139 128 87
-2.28097 -1.1643 7.70306 84 69 34
-2.2924 -1.13254 7.74687 58 32 9
-2.72751 -1.03524 7.49135 101 47 28
-2.22742 -0.993167 7.70784 68 26 7
-2.8186 -0.990417 7.4697 61 19 10
-2.22679 -0.973228 7.7608 142 87 58
-2.36652 -0.927759 8.03727 116 77 43
-2.40225 -0.925353 8.04453 90 60 22
-2.2428 -0.810223 7.5606 134 85 58
-2.43506 -0.864176 7.98067 64 26 10
-2.46453 -0.861433 7.97512 72 36 10
-1.93012 -0.792182 7.65599 125 109 80
-2.27925 -0.765074 7.54197 104 63 34
-2.36452 -0.781707 7.71337 58 18 3
-2.37777 -0.802102 7.90094 132 90 66
-2.28302 -0.688401 7.22862 124 78 53
-2.69186 -0.711073 7.44538 98 52 28
-2.87087 -0.651022 7.58059 32 9 2
-2.81649 -0.646863 7.50457 82 42 31
-2.3999 -0.615167 7.54176 138 84 66
-2.91219 -0.644591 7.67725 160 139 123
-2.95226 -0.641002 7.82445 120 94 74
-2.83067 -0.62429 7.58953 64 24 6
-2.50188 -0.58496 7.39862 95 46 32
-2.44751 -0.560119 7.87843 149 131 107
-2.84197 -0.564589 7.17526 96 34 20
-2.93949 -0.447686 7.12616 164 144 119
-3.09896 -0.402808 8.00261 100 71 36
-2.26681 -1.15509 7.64946 60 30 12
-2.88532 -0.978352 7.43578 118 78 61
-2.31029 -0.956649 7.90104 98 72 34
-2.39215 -0.911332 7.96807 92 58 24
-2.48022 -0.884313 7.97383 161 148 122
-2.4357 -0.862227 7.97682 66 26 8
-2.46177 -0.858335 7.97793 69 32 8
-2.26265 -0.79115 7.60126 118 72 44
-2.041 -0.772115 7.65738 158 104 85
-2.38649 -0.796339 7.79994 62 20 6
-2.34083 -0.783564 7.68999 134 92 67
-2.41463 -0.767021 8.26996 77 30 12
-2.3092 -0.640293 7.49512 82 32 16
-2.83381 -0.668018 7.53704 40 13 9
-2.37986 -0.599746 7.39526 168 112 97
-2.67567 -0.621534 7.39139 153 100 74
-2.48632 -0.599243 7.43366 58 16 6
-2.42152 -0.600524 7.60137 143 98 80
-2.83238 -0.490067 7.22615 121 45 36
-2.88277 -0.468779 7.15124 133 28 11
-2.95809 -0.449162 7.17072 161 136 104
-2.22867 -0.235113 7.77134 198 150 127
-2.92772 -0.232306 7.70141 182 132 106
-2.26258 -1.15601 7.62471 53 26 8
-2.90725 -1.06377 7.4567 40 15 8
-2.68628 -1.01091 7.46266 103 42 24
-2.80667 -0.983998 7.43138 56 18 8
-2.88455 -0.976639 7.42876 106 66 43
-2.39956 -0.908714 7.99463 94 57 24
-2.50981 -0.904721 7.89581 153 144 113
-2.24818 -0.816203 7.59419 155 105 76
-2.46064 -0.869136 8.07371 68 29 14
-2.28926 -0.7695 7.59676 100 58 28
-2.28778 -0.706855 7.49186 74 28 11
-2.91416 -0.697733 7.59922 131 84 69
-2.3739 -0.633295 7.43349 174 116 99
-2.9092 -0.66041 7.51267 104 68 50
-2.4618 -0.61764 7.3362 66 24 10
-2.38505 -0.616179 7.4618 83 31 16
-2.92845 -0.648752 7.61518 86 47 25
-2.845 -0.624886 7.62558 65 24 7
-2.43277 -0.567497 7.77305 148 132 107
-2.81391 -0.526317 7.18525 118 43 34
-2.83404 -0.490502 7.2305 116 30 22
-1.95419 -0.32342 7.60252 137 60 44
-2.63116 -0.233017 7.60586 189 133 99
-2.84629 -1.10056 7.4514 81 46 32
-2.01097 -0.886576 7.55627 148 99 80
-1.92982 -0.909052 7.74815 84 62 30
-2.39901 -0.906934 7.97321 96 62 28
-2.49759 -0.890599 8.04819 161 148 124
-2.24081 -0.809937 7.57107 136 86 60
-2.45382 -0.86068 8.03277 72 34 16
-2.25065 -0.775726 7.54332 125 80 54
-1.98268 -0.729946 7.71489 98 64 38
-2.24613 -0.661669 7.49977 142 92 72
-2.36667 -0.649691 7.46325 74 23 13
-2.51633 -0.651047 7.39273 76 28 13
-2.95983 -0.693134 7.60617 161 142 122
-2.90721 -0.674924 7.68974 40 12 6
-2.38265 -0.613035 7.44064 95 45 30
-2.51363 -0.612033 7.36827 84 39 26
-2.91911 -0.641197 7.68174 148 128 109
-2.53105 -0.610935 7.54329 161 110 97
-2.80999 -0.620506 7.50193 64 26 12
-2.44177 -0.60145 7.70483 154 105 87
-2.40971 -0.588283 7.77861 104 61 45
-2.46083 -0.539153 7.96275 50 16 6
-2.83295 -0.529415 7.23343 117 38 28
-1.83107 -0.368898 8.01427 101 76 39
-1.84883 -0.334592 7.73829 138 104 71
-1.94527 -0.334665 7.33697 130 48 34
-2.98489 -0.238852 7.76858 140 93 66
-2.65864 -0.17247 7.64019 69 24 17
-2.25345 -1.15662 7.57497 65 43 18
-2.88294 -1.04916 7.40294 41 17 10
-2.5112 -0.868334 7.92249 93 58 27
-2.53023 -0.835967 7.79524 132 89 65
-2.32632 -0.786859 7.6624 150 102 73
-2.7449 -0.775964 7.82307 80 36 18
-2.32922 -0.730787 7.77925 73 28 12
-2.27322 -0.706424 7.59473 156 106 80
-2.36352 -0.702739 7.60196 94 50 28
-2.94304 -0.689678 7.55157 168 144 124
-2.53516 -0.629494 7.37535 188 130 108
-2.82915 -0.632468 7.55115 66 26 13
-2.61398 -0.577003 7.36773 168 106 87
-2.85381 -0.465637 7.18292 132 16 18
-1.97839 -0.330856 7.5187 172 124 104
-1.94718 -0.324274 7.62164 128 48 34
-2.98119 -0.392324 7.65123 102 75 43
-1.86849 -0.011918 7.53598 134 112 110
-2.71314 -1.11175 7.51923 118 86 64
-2.81923 -1.04596 7.41703 68 40 30
-2.50313 -0.874985 7.87686 91 61 29
-3.03233 -0.420908 7.86312 120 83 56
-2.62253 -0.176106 7.67316 160 114 92
-3.0706 0.0603591 7.16358 98 36 33
-2.3361 -0.770842 7.61611 95 54 34
-2.27708 -0.609669 7.51936 80 32 16
-2.65451 -0.890625 7.65098 93 56 30
-2.39364 -0.585026 7.68463 131 96 76
-2.11631 -1.17372 7.58559 105 68 49
-1.83972 -0.32156 7.95911 130 97 66
-2.70828 -1.016 7.46565 186 126 106
-2.29356 -0.714725 7.49813 68 26 11
-0.978692 -1.01616 6.98706 136 88 60
-1.97786 -0.743823 7.7432 95 63 33
-2.86117 -0.476605 7.2557 124 17 18
-2.39514 -0.926577 8.03514 94 64 27
-2.3526 -0.904518 7.94252 112 72 42
-2.34293 -0.731848 7.6237 119 78 56
-0.786691 -0.47208 7.30349 159 108 89
-0.644701 -0.332321 7.39062 139 118 106
-1.9461 -0.335949 7.36952 139 66 52
-2.06803 -0.178741 7.32495 96 62 45
-2.01278 -0.181498 7.06441 154 131 122
-1.96282 -1.00079 7.68036 114 106 59
-2.3695 -0.928688 8.06299 110 72 40
-2.49444 -0.623202 8.0072 109 60 43
-0.625787 -0.449325 7.36342 104 89 70
-0.681732 -0.393045 7.52476 63 35 22
-0.550814 -0.338222 7.63185 88 64 48
-2.07432 -0.170841 7.38727 98 64 48
-0.629518 0.105944 7.7947 205 184 178
-1.11578 -0.993513 7.34304 97 66 34
-2.70533 -1.02272 7.55374 84 24 5
-2.2855 -0.77184 7.58042 116 72 42
-0.608877 -0.334931 7.41567 171 150 132
-0.639801 -0.328566 7.4245 45 25 12
-1.15193 -0.289772 7.90576 103 88 66
-2.07968 -0.162988 7.46127 98 64 48
-1.75134 -0.107112 7.20357 154 136 128
-2.37802 -0.581689 7.5858 92 44 27
-0.591607 -0.330212 7.51464 110 84 72
-3.0232 -0.423389 7.83216 132 99 70
-0.708804 -1.35758 7.16262 193 142 118
-0.906846 -1.34839 7.60196 100 82 54
-2.33599 -0.898613 7.81023 120 80 50
-2.38029 -0.615746 7.46941 91 36 22
-2.60648 -0.600389 6.86826 66 24 10
-0.663164 -0.439926 7.285 54 42 22
-0.95013 -0.337985 7.70831 98 82 61
-3.25282 -0.401435 8.45001 112 81 52
-0.586944 -0.112619 7.43568 54 30 26
-1.84132 -0.0828852 7.17909 134 110 106
-1.07681 -1.25981 7.4347 117 90 58
-0.734624 -0.445464 7.41573 93 44 27
-2.94468 -0.248296 7.64715 140 94 70
-1.79179 -0.0668974 7.19935 159 102 94
-2.84554 -0.677644 7.54453 34 13 9
-0.811301 -0.421298 7.33166 108 71 54
-0.628053 -0.407575 7.51839 49 24 14
-2.96936 -0.471705 7.56073 120 28 24
-2.97568 -0.409528 7.64668 104 74 45
-1.15813 -0.223419 7.62263 119 18 16
-1.10713 -1.27009 7.45929 146 136 88
-1.01172 -1.27176 7.70246 114 86 54
-1.11419 -1.08221 7.04297 142 118 97
-2.03209 -0.949107 7.50069 122 73 54
-0.931732 -0.450598 7.70215 71 46 18
-2.53296 -0.548204 7.11872 114 65 42
-3.12446 -0.581541 7.96271 116 42 33
-0.56013 -0.324138 7.40774 88 68 56
-1.11595 -1.14288 7.30733 104 78 49
-2.65475 -0.718114 7.48889 113 74 48
-1.94461 -0.334069 7.40054 138 58 46
-1.53175 -0.130291 7.33912 106 88 74
-1.57087 -0.1206 7.29923 118 102 90
-2.39298 -0.842032 7.90374 128 79 52
-1.74538 -0.101161 7.08847 120 104 100
-1.92631 0.0725406 7.39212 148 121 116
-1.71356 -0.102243 7.16442 150 137 134
-1.10966 -1.03213 7.39663 105 79 45
-0.89663 -0.231116 7.41622 138 99 85
-1.07254 -1.05007 7.11666 142 96 69
-1.10981 -0.990909 7.35799 100 66 30
-1.11613 -1.03621 7.41815 108 94 46
-0.682888 -1.37526 7.22744 220 174 148
-1.01801 -1.36098 7.51783 119 100 57
-1.08319 -1.11343 7.1626 142 115 89
-1.12094 -1.12864 7.39361 131 112 86
-2.22377 -1.25041 7.75593 106 93 64
-2.22089 -1.17841 7.59235 131 88 72
-1.09935 -1.0169 7.21755 100 88 74
-1.09893 -1.00289 7.23247 138 122 112
-1.11355 -1.03408 7.38702 124 101 74
-2.27265 -1.15629 7.70738 82 52 40
-2.7408 -1.12419 7.49406 111 78 58
-1.10299 -1.00999 7.39238 126 98 68
-2.26444 -1.13446 7.68771 158 110 88
-2.24356 -1.10904 7.62415 82 25 8
-2.87112 -1.0995 7.42171 178 132 105
-2.70441 -1.09518 7.51362 66 29 10
-1.05941 -0.911377 7.08745 62 25 22
-2.29471 -1.09963 7.71964 116 101 74
-2.23562 -1.06693 7.59618 88 18 4
-0.894312 -0.86967 7.05064 68 49 42
-2.90909 -1.06118 7.43978 130 89 72
-0.995387 -0.850403 7.14099 85 48 30
-0.654805 -0.834578 7.38536 67 26 12
-2.22979 -1.00687 7.74292 72 27 8
-2.24091 -0.982861 7.72625 136 89 62
-2.22051 -0.955188 7.63245 186 132 102
-0.912304 -0.844435 7.5653 151 131 89
-0.927553 -0.845924 7.60669 159 110 86
-0.950135 -0.851988 7.64045 176 152 112
-0.958792 -0.838612 7.53699 150 104 84
-2.69235 -0.950436 7.57198 56 15 2
-2.04497 -0.889903 7.6617 127 81 66
-1.01442 -0.795778 7.61345 146 111 84
-2.79144 -0.897671 7.55196 208 152 120
-1.79477 -0.860824 8.67856 106 62 45
-2.01719 -0.707928 7.70088 98 80 61
-2.12228 -0.688399 7.64343 56 17 6
-2.376 -0.621335 7.39946 164 111 96
-2.39604 -0.598805 7.40496 134 80 60
-2.81837 -0.643568 7.57933 97 48 32
-2.82109 -0.637018 7.64241 94 43 27
-2.39147 -0.593856 7.47044 87 36 18
-3.03748 -0.597884 6.94102 160 112 110
-3.04275 -0.576227 6.96216 154 114 111
-3.18476 -0.581771 6.86976 79 38 32
-3.17885 -0.572115 6.89083 168 102 96
-3.18657 -0.573582 6.8913 71 28 24
-2.89377 -0.528186 7.16861 147 54 31
-3.02637 -0.539306 7.0515 104 62 31
-3.27057 -0.466744 6.9825 168 134 106
-2.41337 -0.217665 7.79867 188 140 111
-2.0681 -0.179091 7.35412 102 82 68
-2.07398 -0.172019 7.38537 116 95 82
-1.98793 -0.15735 7.41009 156 118 106
-3.08087 -0.351953 7.05158 36 32 46
-1.99928 -0.149911 7.41287 141 120 108
-2.05499 -0.165739 7.34924 147 126 115
-2.629 -0.192823 7.64124 137 89 70
-2.04512 -0.150596 7.34943 122 100 93
-3.11204 -0.338713 7.0488 124 118 130
-2.09449 -0.152334 7.33219 151 128 116
-1.99821 -0.124022 7.37735 149 116 105
-2.69233 -0.173275 7.66322 51 16 10
-2.08787 -0.136944 7.3606 120 96 84
-3.28368 -0.341605 6.97318 132 92 44
-3.25647 -0.333011 6.99292 138 53 30
-3.04336 -0.218315 7.16063 125 44 29
-3.12413 -0.193582 7.09663 160 118 104
-3.25158 -0.20355 7.10312 170 98 90
-3.17134 -0.188019 7.09115 146 84 50
-3.18238 -0.175359 7.11098 118 36 12
-1.95098 0.0950491 7.34553 93 60 55
-3.18286 -0.102779 7.30103 106 30 14
-3.16406 -0.0751468 7.16525 136 56 36
-0.734273 -1.34498 7.24994 164 148 110
-0.733554 -1.30751 7.20645 192 140 117
-0.79133 -1.28963 7.2191 158 127 96
-0.748878 -1.29118 7.24856 140 86 59
-1.01942 -1.35987 7.51688 119 100 57
-1.01533 -1.3621 7.53542 132 116 72
0.543139 -1.87211 9.97227 136 112 68
-1.02462 -1.23112 7.58227 168 150 108
-1.12522 -1.18204 7.39626 146 112 80
-1.06815 -1.09594 7.16308 100 30 16
-1.05122 -1.1667 7.5492 132 80 50
-1.0603 -1.1486 7.56259 128 89 52
-2.18353 -1.16334 7.5828 85 40 24
-1.10096 -1.06446 7.42095 87 75 54
-1.08106 -1.07754 7.51554 104 94 51
-1.11059 -1.04675 7.41546 90 73 48
-2.186 -1.12448 7.59128 178 116 95
-2.85411 -1.12639 7.43971 118 78 55
-1.10158 -1.01119 7.39487 126 98 68
-2.26539 -1.13354 7.67311 158 110 88
-2.29476 -1.11366 7.74105 117 106 74
-1.06144 -0.922142 7.1894 164 136 124
-0.887717 -0.888008 7.07481 135 111 102
-2.90349 -1.07611 7.44291 72 34 16
-2.91837 -1.04976 7.45231 54 22 8
-0.978711 -0.863863 7.15066 154 124 113
-0.987568 -0.850991 7.14981 86 49 30
-0.901107 -0.815105 7.08772 88 41 26
-0.977938 -0.893763 7.57684 169 148 104
-2.88617 -0.9805 7.43939 124 86 67
-2.23179 -0.98057 7.74794 77 30 8
-2.24049 -0.970875 7.71974 88 42 14
-2.20912 -0.958607 7.65388 213 158 129
-0.934214 -0.844421 7.53568 111 78 42
-0.961137 -0.841531 7.63365 110 72 41
-0.950214 -0.831646 7.67276 156 129 96
-2.28664 -0.917883 7.71083 96 58 24
-2.03478 -0.896221 7.73228 138 90 76
-1.02973 -0.794638 7.58699 146 111 84
-2.44645 -0.868123 7.9533 116 68 50
-2.85598 -0.850203 7.59642 97 50 38
-2.10449 -0.68618 7.73361 58 20 10
-2.27619 -0.608692 7.59475 102 54 38
-2.37874 -0.607467 7.4433 150 98 82
-2.89276 -0.65032 7.63398 44 10 4
-3.03606 -0.599512 6.93069 154 100 99
-3.06387 -0.556054 7.01447 145 98 96
-2.8952 -0.528577 7.17442 150 65 34
-3.20276 -0.566629 6.94132 168 116 108
-2.50854 -0.207105 7.77911 70 30 20
-3.09508 -0.371596 7.03134 114 110 118
-2.02529 -0.175228 7.30697 146 123 110
-0.865529 0.0016697 7.47496 38 20 18
-2.93097 -0.232389 7.69119 182 130 109
-2.6262 -0.190128 7.63484 132 84 64
-2.07021 -0.144071 7.39856 98 77 69
-2.08365 -0.143624 7.369 183 160 150
-2.69329 -0.173892 7.66633 52 16 10
-3.28614 -0.343146 6.97969 130 87 38
-3.03027 -0.272815 7.13652 60 33 42
-3.11076 -0.243379 7.0943 28 18 31
-3.17849 -0.242713 7.04149 43 26 34
-3.16298 -0.117329 7.29536 140 97 90
-3.16854 -0.125736 7.24132 160 122 107
-3.26128 -0.089183 7.21183 160 91 82
-1.1142 -1.24332 7.43683 142 126 82
-1.05613 -1.24236 7.54022 124 77 32
-1.09995 -1.16431 7.44309 100 64 34
-1.0028 -1.17512 7.61164 141 93 69
-2.07976 -1.22569 7.61911 36 20 6
-1.05546 -1.15139 7.56947 132 99 60
-1.07762 -1.03169 7.08642 130 86 66
-2.11884 -1.17349 7.59214 106 68 50
-1.07241 -1.07589 7.46497 82 72 50
-1.10023 -1.0592 7.45566 128 116 88
-1.11286 -1.04425 7.4156 88 70 46
-2.31981 -1.12116 7.58027 115 108 70
-2.27111 -1.11069 7.70081 94 52 33
-2.91547 -1.07683 7.45516 130 87 66
-2.91589 -1.04402 7.41794 48 18 4
-0.846538 -0.898357 7.44915 154 141 108
-0.982964 -0.894917 7.5656 166 154 106
-0.647108 -0.833943 7.42074 160 134 120
-0.982811 -0.870191 7.60107 120 91 51
-2.20018 -0.963928 7.68915 203 147 118
-0.966763 -0.85347 7.61899 167 153 108
-0.975615 -0.842281 7.53542 160 110 87
-2.69341 -0.953639 7.58542 56 15 2
-2.67715 -0.928435 7.5855 66 25 4
-2.79851 -0.925466 7.50359 121 68 52
-2.06164 -0.885907 7.65726 72 27 12
-2.63686 -0.889826 7.62495 100 60 33
-2.0422 -0.76771 7.62127 174 123 102
-2.90225 -0.812323 7.55289 110 64 50
-2.85906 -0.744184 7.60828 97 48 32
-2.91564 -0.702225 7.62194 135 89 77
-2.36301 -0.613034 7.42351 118 60 44
-2.27115 -0.607651 7.62098 102 54 38
-2.39565 -0.59795 7.43241 88 36 20
-3.03577 -0.604047 6.89491 166 131 128
-3.03052 -0.598108 6.89412 146 86 84
-3.20896 -0.616629 6.90509 144 33 30
-3.20187 -0.611131 6.89931 176 104 98
-3.19285 -0.610583 6.875 178 114 109
-3.17421 -0.587638 6.88217 170 101 96
-3.06618 -0.57215 6.9092 166 140 142
-3.17176 -0.577565 6.86234 187 128 122
-3.05579 -0.56108 6.91991 158 133 132
-3.19883 -0.573503 6.90502 180 134 124
-2.8956 -0.528767 7.16933 153 76 38
-3.19774 -0.570637 6.91332 172 128 120
-3.18382 -0.567572 6.8863 154 95 89
-2.89427 -0.465701 7.17802 130 50 30
-3.27398 -0.488024 7.01642 122 36 30
-3.26885 -0.467906 7.00033 132 42 26
-3.27193 -0.467215 6.98342 169 139 114
-3.10355 -0.37565 7.0351 92 86 96
-2.06459 -0.176295 7.36651 102 82 68
-2.05235 -0.168385 7.35842 156 134 122
-2.62979 -0.188254 7.64297 133 86 67
-2.06989 -0.146766 7.40082 93 73 62
-2.08696 -0.156775 7.29779 162 142 136
-2.0597 -0.135133 7.37055 100 80 74
-3.27438 -0.351391 6.93359 132 88 38
-3.11227 -0.251358 7.08528 37 24 35
-3.053 -0.225967 7.15614 118 42 28
-3.16533 -0.23353 7.05611 48 22 33
-3.12539 -0.192201 7.09859 160 118 106
-3.16768 -0.191075 7.08025 139 80 47
-3.06094 -0.098297 7.32043 151 108 100
-3.1794 -0.0995488 7.37357 139 96 90
-3.17394 -0.115601 7.25934 136 86 72
-3.06985 -0.0989818 7.24293 148 68 42
-3.26698 -0.0849998 7.23007 158 96 86
-3.28628 -0.0645169 7.2583 130 60 52
-0.725264 -1.34541 7.26037 148 128 92
-0.813071 -1.29455 7.18509 108 79 44
-0.793705 -1.28714 7.22378 154 130 100
-1.00476 -1.36526 7.53727 112 94 51
-1.07601 -1.1826 7.33334 138 115 98
-1.01812 -1.23249 7.59646 168 158 114
-1.12003 -1.1847 7.40542 145 110 78
-1.10118 -1.13235 7.39039 125 106 88
-2.26601 -1.20641 7.55825 109 95 64
-1.04986 -1.14896 7.57126 130 68 40
-1.07451 -1.11008 7.51082 165 156 116
-1.11662 -1.0683 7.39563 81 72 50
-1.13961 -1.05448 7.38892 128 116 88
-2.83618 -1.13679 7.40388 88 58 36
-1.08072 -1.03731 7.42101 116 93 69
-2.83619 -1.11348 7.43375 151 104 80
-2.24899 -1.11545 7.62511 64 13 2
-2.86945 -1.09977 7.422 172 124 99
-1.0647 -0.93516 7.23799 133 106 91
-2.8839 -1.07782 7.43282 166 117 92
-2.90148 -1.07087 7.43491 60 27 11
-2.22623 -1.07153 7.65625 83 19 8
-2.29852 -1.0679 7.64512 77 42 17
-2.92494 -1.05485 7.52959 51 20 6
-2.80858 -1.02224 7.45936 166 112 98
-0.958934 -0.896771 7.59976 164 141 98
-0.96418 -0.884095 7.62044 119 71 34
-2.19878 -0.964123 7.71389 205 149 120
-0.975639 -0.842719 7.53651 160 110 87
-0.976485 -0.839863 7.51396 140 92 72
-1.08692 -0.686738 7.50581 72 41 28
-2.0379 -0.773759 7.67759 164 113 92
-2.00258 -0.71563 7.74236 157 142 121
-3.1007 -0.755712 7.02564 50 46 60
-2.36252 -0.612436 7.43518 112 55 40
-2.25409 -0.606042 7.69807 101 52 31
-2.38195 -0.605426 7.44907 160 105 88
-2.8225 -0.647639 7.58472 68 22 8
-2.82656 -0.63433 7.67208 75 26 13
-2.39248 -0.595232 7.49131 89 37 18
-2.91158 -0.642547 7.65901 156 124 106
-2.84475 -0.623966 7.82393 63 20 10
-3.20429 -0.618645 6.88786 146 40 36
-3.21409 -0.615662 6.92481 146 38 34
-3.19797 -0.608473 6.87976 188 156 148
-3.19831 -0.579903 6.89758 177 146 136
-3.18235 -0.576803 6.87471 70 25 22
-3.03647 -0.545259 7.0637 156 123 100
-3.24164 -0.508919 7.03322 169 138 123
-3.26596 -0.470991 6.99254 134 40 25
-3.06505 -0.394207 7.04247 132 127 129
-2.06364 -0.171453 7.38108 89 71 56
-1.97788 -0.148045 7.45963 156 130 116
-2.06293 -0.142784 7.42806 92 72 62
-2.06347 -0.150914 7.36355 142 122 116
-3.13095 -0.338239 7.00086 29 26 38
-2.95816 -0.194519 7.71269 168 120 92
-2.0737 -0.122287 7.3301 114 93 86
-3.04131 -0.268989 7.12752 44 21 30
-3.17863 -0.242768 7.04315 43 26 34
-3.1762 -0.194877 7.10625 69 2 3
-3.25638 -0.199692 7.12322 163 84 78
-3.17296 -0.183478 7.1055 145 86 50
-3.0747 -0.0863693 7.28425 146 74 38
-3.25422 -0.104526 7.20176 142 60 28
-0.989606 -1.36486 7.55519 96 69 30
-1.1426 -1.22276 7.40423 146 121 73
-1.12152 -1.17242 7.27014 137 114 97
-1.12313 -1.20856 7.42955 151 114 70
-1.08441 -1.17126 7.47111 105 69 39
-1.09214 -1.08957 7.17375 144 102 80
-2.08903 -1.22111 7.60246 38 20 10
-1.02394 -1.15565 7.61593 130 79 46
-0.979186 -1.00176 7.12118 142 107 94
-1.09501 -1.04935 7.4847 144 136 94
-2.17909 -1.12697 7.593 180 118 98
-1.08923 -0.995275 7.26399 72 56 48
-1.02297 -0.938184 7.07955 110 16 8
-2.28509 -1.09819 7.62175 86 48 32
-1.09785 -0.936097 7.20623 138 111 95
-0.880458 -0.933396 7.63537 80 38 12
-0.887745 -0.869232 7.58729 130 97 56
-0.939019 -0.885746 7.66854 120 95 54
-2.23985 -0.974114 7.69613 76 30 8
-2.06983 -0.925394 7.64869 59 19 10
-0.944667 -0.815468 7.53796 78 46 20
-2.64047 -0.889359 7.602 96 56 26
-3.14674 -0.79292 6.88846 122 118 104
-2.90038 -0.808704 7.49926 114 66 53
-1.97395 -0.740717 7.65664 90 64 42
-3.09635 -0.768516 7.0218 76 67 72
-2.44903 -0.721418 7.35057 109 78 46
-2.33077 -0.681799 7.43729 88 46 27
-2.97236 -0.740199 7.62428 161 106 80
-2.97951 -0.70614 7.62556 92 54 30
-2.37149 -0.614659 7.41547 86 34 22
-2.27169 -0.6102 7.60333 100 52 33
-2.38461 -0.603501 7.44639 146 90 73
-3.20946 -0.61946 6.90328 146 39 34
-3.03744 -0.586551 6.91994 162 137 140
-2.91045 -0.554459 7.19004 111 22 8
-0.860398 -0.30948 7.47791 124 94 74
-3.18944 -0.577789 6.889 72 32 24
-2.89616 -0.465607 7.20692 133 40 25
-3.27336 -0.494234 7.02133 150 98 85
-3.27236 -0.466908 6.98019 168 140 117
-2.52668 -0.233663 7.61294 60 20 11
-3.09074 -0.381655 7.00127 126 120 126
-2.09624 -0.188482 7.28368 94 76 61
-1.99104 -0.152701 7.43312 154 134 118
-2.0562 -0.169833 7.34607 156 136 124
-2.08858 -0.165114 7.29182 140 120 115
-1.99371 -0.114456 7.40265 152 124 110
-2.03783 -0.114739 7.40806 150 127 117
-3.28671 -0.349318 6.97176 128 82 36
-2.07175 -0.117946 7.34955 115 94 88
-3.25574 -0.331091 6.9951 136 46 28
-3.0986 -0.262613 7.08382 29 16 33
-3.11321 -0.251149 7.0928 26 18 32
-3.03988 -0.220023 7.1478 131 40 33
-1.97895 0.0470394 7.3941 115 84 78
-3.16945 -0.201767 7.0795 70 6 4
-3.12524 -0.193501 7.08588 161 115 106
-3.25201 -0.20263 7.10381 170 106 98
-3.16003 -0.123359 7.27497 142 101 94
-0.920498 -1.34513 7.56812 114 101 69
-1.11658 -1.17536 7.28106 136 112 96
-1.09425 -1.19326 7.45941 152 120 80
-1.09575 -1.17217 7.45485 125 86 53
-2.10095 -1.21407 7.57668 38 20 8
-1.03911 -1.05063 7.14074 134 87 66
-1.08863 -1.1314 7.50803 129 73 42
-1.14533 -1.06788 7.41731 152 145 98
-1.11427 -1.07408 7.4048 92 80 58
-1.0793 -1.04976 7.48413 90 72 42
-1.05681 -0.953535 7.16263 100 20 16
-1.00796 -0.937791 7.10572 116 12 8
-2.29287 -1.14089 7.76016 100 91 56
-2.8587 -1.08904 7.4485 149 100 78
-1.04067 -0.925177 7.22285 152 122 108
-2.2816 -1.10411 7.77741 48 26 7
-2.87074 -1.06647 7.45024 170 119 94
-0.872731 -0.934166 7.65207 102 54 26
-2.06069 -0.969247 7.65017 118 72 56
-2.79265 -0.980572 7.4456 185 123 103
-2.24221 -0.977044 7.67646 72 26 7
-2.88558 -0.973948 7.40167 110 68 48
-1.00281 -0.84099 7.49548 147 99 76
-2.04964 -0.89944 7.67185 136 90 72
-2.05915 -0.882857 7.67024 72 28 14
-2.04976 -0.774869 7.63904 146 98 79
-3.15299 -0.77737 6.87313 90 88 92
-3.13235 -0.762006 6.87239 98 94 122
-3.00562 -0.798048 7.57061 112 85 60
-2.36809 -0.629934 7.40834 178 122 108
-2.36839 -0.606136 7.4935 72 20 9
-2.83555 -0.636212 7.66713 59 19 10
-3.22839 -0.65902 6.96772 144 64 52
-3.19088 -0.605549 6.86378 187 156 150
-3.21216 -0.581554 6.94791 181 152 145
-3.1805 -0.576428 6.8933 172 125 120
-3.06347 -0.563576 6.92041 160 138 138
-2.90044 -0.456383 7.32452 126 30 19
-3.27461 -0.486232 7.01743 132 62 50
-3.26292 -0.474125 6.98269 137 34 28
-2.53978 -0.292646 7.66614 140 94 74
-2.97304 -0.462604 6.34128 23 16 30
-3.0633 -0.387578 7.02828 26 20 33
-2.32681 -0.191876 7.75285 200 148 118
-2.0322 -0.181137 7.29812 154 134 118
-2.08008 -0.173582 7.34731 92 72 60
-3.07742 -0.33538 7.04992 25 20 38
-2.0855 -0.154168 7.31805 118 98 92
-2.01883 -0.128054 7.33248 148 124 110
-2.94906 -0.200414 7.66658 183 132 101
-2.04362 -0.119791 7.38297 151 129 118
-1.88974 -0.114805 7.16951 92 76 70
-3.18097 -0.227784 7.09535 36 24 38
-3.17222 -0.186142 7.09464 145 86 50
-3.13606 -0.145817 7.20493 78 8 8
-0.885035 -1.3578 7.62333 109 94 64
-0.871992 -1.30071 7.49514 129 113 75
-1.11764 -1.16768 7.42327 130 92 58
-1.11465 -1.07699 7.40037 83 76 54
-2.83922 -1.11952 7.45258 136 92 70
-2.08041 -1.10352 7.57433 125 86 68
-2.23476 -1.13114 7.76215 58 9 0
-2.87751 -1.10862 7.46061 158 113 88
-1.04955 -0.920027 7.09149 132 86 81
-2.25529 -1.11652 7.7723 172 104 77
-1.06265 -0.944054 7.25555 139 112 99
-2.25612 -1.0496 7.50879 88 22 6
-2.87665 -1.06753 7.44098 170 120 90
-2.01317 -1.00402 7.66893 39 14 8
-0.913927 -0.887373 7.56192 118 64 32
-0.929624 -0.828407 7.3886 131 123 80
-0.844639 -0.803713 7.44988 72 62 42
-2.0462 -0.901682 7.65471 127 82 64
-3.16104 -0.752189 6.89267 134 127 119
-2.05052 -0.680423 8.00694 80 40 26
-2.36745 -0.627932 7.40584 176 120 104
-2.26715 -0.614786 7.58603 102 52 30
-2.38006 -0.615336 7.36623 75 22 10
-3.15464 -0.628323 6.88466 180 68 71
