ply
format ascii 1.0
element vertex 1069
property float x
property float y
property float z
property uchar red
property uchar green
property uchar blue
end_header
-0.172596 -0.180755 3.51641 0 255 0
-0.179434 -0.228925 3.48495 0 255 0
-0.239277 -0.257437 3.50969 0 255 0
-0.207288 -0.219973 3.48827 0 255 0
-0.173169 -0.21617 3.48501 0 255 0
-0.179265 -0.196616 3.49872 0 255 0
-0.156146 -0.18343 3.50207 0 255 0
-0.131349 -0.213791 3.47973 0 255 0
-0.190931 -0.217499 3.49133 0 255 0
-0.184926 -0.216428 3.49363 0 255 0
-0.151787 -0.259958 3.48297 0 255 0
-0.166638 -0.254402 3.47495 0 255 0
-0.169774 -0.25666 3.48308 0 255 0
-0.174701 -0.257691 3.4901 0 255 0
-0.14036 -0.254285 3.48928 0 255 0
-0.150633 -0.259725 3.48529 0 255 0
-0.106215 -0.252903 3.48509 0 255 0
-0.111331 -0.222775 3.49438 0 255 0
-0.142307 -0.227943 3.49819 0 255 0
-0.167104 -0.23432 3.5196 0 255 0
-0.128867 -0.279159 3.76023 60 116 130
-0.129165 -0.279332 3.76187 164 190 192
-0.125556 -0.279591 3.76448 100 126 132
-0.131005 -0.279244 3.76096 156 164 160
-0.131532 -0.279296 3.76122 120 138 136
-0.131853 -0.277024 3.76154 120 132 124
-0.145696 -0.279958 3.75878 103 136 139
-0.149507 -0.281121 3.75917 90 125 126
-0.134515 -0.277677 3.76165 82 150 173
-0.151094 -0.281343 3.75992 56 82 80
-0.138399 -0.277595 3.75946 121 163 172
-0.153322 -0.282334 3.76105 62 70 62
-0.136375 -0.277211 3.76081 108 171 192
-0.139406 -0.277092 3.75965 64 102 111
-0.12626 -0.275395 3.76451 202 211 206
-0.153108 -0.280938 3.7609 86 90 76
-0.140884 -0.276646 3.75958 53 90 99
-0.141541 -0.275793 3.76007 58 94 103
-0.135301 -0.275415 3.76352 148 190 202
-0.141254 -0.275392 3.7602 61 100 109
-0.135745 -0.274934 3.76296 125 172 186
-0.142448 -0.275289 3.76033 155 180 184
-0.135368 -0.274308 3.76382 94 137 147
-0.149129 -0.277182 3.76119 122 151 152
-0.144493 -0.275249 3.76061 131 168 171
-0.153663 -0.278147 3.7625 124 129 118
-0.154539 -0.278253 3.76282 72 97 96
-0.153593 -0.277629 3.76236 55 75 70
-0.158533 -0.273617 3.76347 182 178 170
-0.136848 -0.267246 3.76244 127 142 127
-0.139437 -0.267582 3.76363 57 78 72
-0.138741 -0.267027 3.7634 146 158 140
-0.137565 -0.266605 3.76286 218 214 188
-0.158301 -0.27001 3.76236 208 174 154
-0.153924 -0.269125 3.76294 148 146 133
-0.155181 -0.269201 3.76385 190 174 156
-0.147572 -0.266322 3.76188 158 162 158
-0.148423 -0.266379 3.76322 121 116 106
-0.144999 -0.262917 3.76397 130 87 58
-0.155604 -0.265469 3.7658 130 109 89
-0.15421 -0.255699 3.77179 102 70 50
-0.155212 -0.255729 3.77132 170 148 132
-0.155588 -0.249684 3.7775 76 51 36
-0.157112 -0.248389 3.7773 112 150 164
-0.148161 -0.24351 3.77798 93 120 130
-0.176172 -0.243987 3.77098 128 110 89
-0.161503 -0.239746 3.77744 4 36 50
-0.164457 -0.239106 3.77679 166 165 162
-0.162575 -0.238558 3.7765 160 165 166
-0.164771 -0.238385 3.77618 18 16 14
-0.16178 -0.237662 3.77663 133 136 138
-0.153373 -0.235626 3.77829 18 42 54
-0.156342 -0.236062 3.77655 39 39 37
-0.164272 -0.237932 3.77642 167 164 158
-0.163192 -0.237295 3.77587 154 156 152
-0.164447 -0.2374 3.77575 155 152 147
-0.153314 -0.235426 3.77872 24 34 42
-0.166022 -0.237605 3.77608 128 126 126
-0.1567 -0.235189 3.77736 40 38 34
-0.154188 -0.234425 3.77741 18 18 22
-0.156953 -0.234701 3.77653 174 170 164
-0.15803 -0.234866 3.77692 126 126 122
-0.169428 -0.235756 3.77491 75 84 83
-0.154402 -0.231776 3.77712 66 68 70
-0.172024 -0.233113 3.77573 137 138 130
-0.156453 -0.228619 3.77723 60 66 66
-0.15652 -0.225787 3.77534 46 73 56
-0.177062 -0.214246 3.76474 77 99 75
-0.178391 -0.213251 3.7641 43 46 31
-0.134833 -0.286203 3.75831 126 86 78
-0.134204 -0.285024 3.75858 165 144 138
-0.131398 -0.279353 3.76106 120 138 133
-0.148521 -0.282765 3.75791 112 138 139
-0.150381 -0.283276 3.75848 107 132 129
-0.152686 -0.284338 3.76004 99 113 106
-0.143786 -0.279452 3.75849 88 128 136
-0.145651 -0.279964 3.75904 106 136 138
-0.15098 -0.281247 3.75978 56 82 80
-0.149609 -0.280471 3.75977 136 154 148
-0.139432 -0.277243 3.75964 56 99 110
-0.137229 -0.276609 3.76108 68 108 121
-0.152502 -0.280756 3.76087 129 138 130
-0.147263 -0.278196 3.76075 154 172 171
-0.14864 -0.278294 3.76056 50 84 89
-0.150923 -0.27886 3.76105 54 90 95
-0.140474 -0.275692 3.76031 60 104 117
-0.160672 -0.282172 3.76346 78 141 156
-0.142282 -0.275028 3.76007 138 166 172
-0.145975 -0.276391 3.76066 146 174 174
-0.153787 -0.278977 3.76254 49 69 64
-0.148609 -0.276847 3.76114 88 126 131
-0.158631 -0.280925 3.76494 60 148 174
-0.13717 -0.274585 3.76334 112 164 180
-0.154648 -0.278103 3.7622 78 100 98
-0.159852 -0.276038 3.76267 114 150 156
-0.159429 -0.275872 3.76331 146 181 187
-0.136822 -0.267275 3.76278 106 126 115
-0.138052 -0.267098 3.76306 46 80 74
-0.13943 -0.267597 3.76342 60 79 74
-0.13753 -0.266479 3.76256 217 210 184
-0.134617 -0.264144 3.76287 118 168 182
-0.143239 -0.266099 3.76212 178 158 144
-0.145041 -0.266137 3.76269 88 60 44
-0.147897 -0.266739 3.76403 149 158 154
-0.149233 -0.251725 3.76798 113 92 72
-0.156851 -0.249702 3.7759 193 172 162
-0.160338 -0.249919 3.77342 156 134 119
-0.15563 -0.249745 3.77763 74 46 32
-0.151805 -0.246378 3.77326 176 152 136
-0.156028 -0.248371 3.7774 30 46 50
-0.15702 -0.248402 3.7768 136 158 166
-0.176189 -0.244024 3.77137 128 110 90
-0.161516 -0.239719 3.7773 6 42 58
-0.162318 -0.238726 3.77677 145 150 152
-0.155227 -0.236032 3.77729 86 88 90
-0.165025 -0.237839 3.77567 85 82 78
-0.162578 -0.237624 3.77621 38 40 39
-0.161817 -0.237681 3.77669 133 136 138
-0.164288 -0.237932 3.77641 156 153 147
-0.162221 -0.237199 3.77604 10 10 10
-0.155052 -0.235482 3.7771 32 36 38
-0.163283 -0.237339 3.77573 140 142 140
-0.166011 -0.237669 3.77581 128 126 126
-0.156883 -0.2347 3.77645 174 170 164
-0.155919 -0.234373 3.77633 172 170 164
-0.154538 -0.233919 3.77764 128 129 130
-0.169779 -0.235216 3.77387 90 98 97
-0.167825 -0.232602 3.77558 58 72 62
-0.156397 -0.228621 3.77749 53 58 59
-0.170764 -0.232211 3.77526 140 144 140
-0.156445 -0.226681 3.77675 46 70 54
-0.13424 -0.28531 3.75913 72 74 69
-0.125627 -0.279657 3.76442 88 130 140
-0.148449 -0.282851 3.75829 117 141 142
-0.131391 -0.2794 3.76156 125 142 138
-0.125733 -0.278964 3.76448 200 208 204
-0.151371 -0.283064 3.75908 54 74 68
-0.15128 -0.282003 3.75951 135 148 141
-0.149467 -0.281085 3.7589 91 124 125
-0.147679 -0.280587 3.75912 142 163 163
-0.134535 -0.277738 3.76184 70 140 162
-0.153227 -0.282349 3.76078 52 68 59
-0.131889 -0.276921 3.76198 104 129 128
-0.150658 -0.280949 3.75984 56 82 80
-0.136462 -0.277099 3.76081 106 167 188
-0.12918 -0.275634 3.76246 194 207 202
-0.137269 -0.276725 3.76087 62 105 120
-0.140616 -0.275842 3.76046 56 105 120
-0.135373 -0.275361 3.76334 148 190 202
-0.160714 -0.282254 3.7637 84 146 160
-0.15012 -0.277672 3.76103 44 85 90
-0.146017 -0.276494 3.76054 150 175 174
-0.153701 -0.278942 3.76215 58 77 72
-0.148941 -0.277271 3.76095 144 163 162
-0.135432 -0.274503 3.76383 144 188 198
-0.148656 -0.277085 3.76113 108 138 140
-0.13719 -0.274411 3.76324 110 163 180
-0.13261 -0.269111 3.76288 104 161 167
-0.161364 -0.276212 3.76239 62 102 108
-0.159424 -0.275943 3.76364 127 167 176
-0.162062 -0.274235 3.76227 194 178 156
-0.158633 -0.273712 3.76351 178 180 177
-0.136858 -0.267263 3.76305 133 144 128
-0.138166 -0.266891 3.76264 60 88 78
-0.138948 -0.266944 3.76309 110 131 118
-0.16332 -0.273806 3.76393 100 93 74
-0.143276 -0.266141 3.76233 178 161 148
-0.154568 -0.269513 3.76342 88 86 77
-0.153912 -0.269196 3.76332 141 143 132
-0.139522 -0.265147 3.76224 228 191 144
-0.155147 -0.269177 3.76397 186 170 154
-0.155886 -0.265808 3.76601 172 152 132
-0.154268 -0.255585 3.77106 97 65 44
-0.15647 -0.255317 3.77147 107 76 62
-0.160035 -0.249968 3.7742 176 153 139
-0.155851 -0.249617 3.77659 82 49 34
-0.156677 -0.249528 3.77596 167 150 140
-0.15182 -0.246417 3.7737 176 153 138
-0.157094 -0.248407 3.77671 136 162 170
-0.156327 -0.248462 3.77665 28 51 56
-0.150671 -0.245247 3.77436 124 135 132
-0.148233 -0.243543 3.77816 89 120 132
-0.162614 -0.239102 3.7769 114 121 122
-0.1625 -0.238863 3.77707 134 138 139
-0.15499 -0.236857 3.77803 15 23 26
-0.161886 -0.237756 3.77638 128 132 134
-0.155281 -0.236044 3.77739 82 84 85
-0.16255 -0.237502 3.77599 40 41 40
-0.16331 -0.237231 3.77581 162 163 160
-0.156969 -0.235834 3.77735 116 116 112
-0.164937 -0.237775 3.77659 166 162 156
-0.162191 -0.237216 3.77767 13 13 14
-0.165927 -0.237688 3.77603 115 114 114
-0.156832 -0.235106 3.77719 40 38 33
-0.155691 -0.234827 3.77685 154 154 148
-0.157956 -0.234947 3.77674 136 136 134
-0.172061 -0.233102 3.77513 124 124 116
-0.170756 -0.23227 3.7752 124 128 125
-0.177121 -0.214197 3.76381 77 99 75
-0.13688 -0.283163 3.76087 82 167 192
-0.129958 -0.280071 3.76133 46 104 116
-0.12572 -0.279687 3.76428 85 124 132
-0.131255 -0.279482 3.76165 124 142 138
-0.128828 -0.279278 3.7617 174 196 197
-0.148384 -0.282811 3.75815 117 141 142
-0.152568 -0.284334 3.75986 101 114 106
-0.151467 -0.283129 3.75922 50 75 70
-0.128799 -0.277744 3.76219 146 158 156
-0.151262 -0.282051 3.75931 134 150 142
-0.147664 -0.280463 3.75903 134 158 162
-0.153128 -0.282452 3.76071 46 71 66
-0.149631 -0.280679 3.75948 98 126 124
-0.145742 -0.279821 3.75897 112 142 144
-0.138472 -0.277421 3.75913 127 165 174
-0.134562 -0.277656 3.76172 84 150 171
-0.150396 -0.280691 3.75953 59 88 91
-0.139515 -0.277551 3.75989 54 101 114
-0.129053 -0.275656 3.76248 178 189 184
-0.153272 -0.280683 3.76152 64 79 70
-0.140882 -0.276524 3.75955 92 126 134
-0.146067 -0.277914 3.75995 144 164 162
-0.147358 -0.278243 3.76058 157 174 172
-0.150983 -0.278927 3.76083 51 90 97
-0.135457 -0.274786 3.7637 154 193 202
-0.146059 -0.276736 3.76097 152 173 170
-0.1422 -0.275441 3.76056 148 174 180
-0.150157 -0.277532 3.76089 46 91 98
-0.137142 -0.274583 3.76324 116 164 178
-0.153547 -0.277861 3.76223 124 130 122
-0.160504 -0.277579 3.76286 97 150 162
-0.132686 -0.269149 3.76277 109 162 166
-0.159414 -0.27575 3.76299 122 162 170
-0.158744 -0.273724 3.76324 178 179 174
-0.136154 -0.266577 3.76218 177 178 162
-0.13748 -0.266432 3.76244 217 210 184
-0.135339 -0.26442 3.7637 182 202 205
-0.154534 -0.269615 3.76363 91 88 79
-0.153729 -0.269902 3.76567 143 140 128
-0.148434 -0.267599 3.76204 40 86 94
-0.144953 -0.266374 3.76315 82 64 52
-0.147807 -0.26658 3.76318 158 160 154
-0.134129 -0.263131 3.7652 132 158 166
-0.155691 -0.265496 3.76585 142 121 102
-0.15359 -0.258734 3.76992 130 114 95
-0.154405 -0.255658 3.77145 98 68 48
-0.156498 -0.255218 3.77122 104 70 56
-0.15685 -0.254721 3.77177 99 64 48
-0.156928 -0.248993 3.77655 184 180 176
-0.150324 -0.245295 3.77426 144 150 146
-0.17622 -0.244013 3.771 141 123 102
-0.155186 -0.236889 3.77776 16 22 25
-0.161998 -0.23799 3.77684 122 124 126
-0.155293 -0.236166 3.77834 98 100 100
-0.16262 -0.237462 3.77591 22 23 22
-0.154472 -0.235268 3.77835 52 58 62
-0.156924 -0.235926 3.77713 120 120 116
-0.172073 -0.23322 3.77572 134 135 126
-0.165234 -0.222079 3.76509 96 121 81
-0.160959 -0.220864 3.76877 82 110 74
-0.136902 -0.283134 3.76115 80 164 188
-0.130256 -0.280063 3.76075 46 104 116
-0.139285 -0.280773 3.75758 150 178 182
-0.125797 -0.27952 3.76398 146 178 182
-0.148272 -0.282793 3.75816 126 146 146
-0.150715 -0.28347 3.75861 118 136 130
-0.131212 -0.279447 3.76162 104 125 125
-0.151857 -0.283215 3.75908 50 77 74
-0.151222 -0.282283 3.75946 130 144 135
-0.147694 -0.280475 3.75918 132 154 157
-0.131943 -0.277142 3.76208 99 123 120
-0.152789 -0.282614 3.7607 48 74 70
-0.150529 -0.280935 3.7599 53 88 92
-0.131055 -0.276765 3.76205 148 156 148
-0.140879 -0.277699 3.75954 92 130 136
-0.137327 -0.277295 3.76111 61 115 134
-0.153627 -0.281898 3.76137 113 112 100
-0.13661 -0.277017 3.7611 107 160 179
-0.129045 -0.275652 3.76268 185 204 202
-0.141039 -0.276508 3.75946 43 86 96
-0.151155 -0.279267 3.76121 48 92 99
-0.144084 -0.276937 3.76019 149 170 168
-0.153554 -0.279103 3.76213 41 68 66
-0.150295 -0.277667 3.7617 70 106 108
-0.144428 -0.275759 3.76028 144 164 162
-0.137301 -0.275042 3.7629 142 176 185
-0.139881 -0.274125 3.76194 139 174 185
-0.153463 -0.278016 3.76226 132 134 124
-0.133165 -0.269042 3.76218 108 160 162
-0.160518 -0.276227 3.76382 121 145 146
-0.15887 -0.274044 3.76356 175 178 175
-0.162114 -0.274546 3.76287 192 176 156
-0.136929 -0.267043 3.76206 124 140 127
-0.138266 -0.266998 3.76286 74 103 92
-0.152514 -0.270319 3.7628 34 87 100
-0.150439 -0.268876 3.7614 92 137 142
-0.155341 -0.270236 3.76227 52 82 86
-0.134573 -0.264064 3.76382 100 144 156
-0.155351 -0.269121 3.76447 187 170 154
-0.134268 -0.263164 3.76391 70 117 134
-0.155026 -0.256076 3.7706 188 173 159
-0.155209 -0.255918 3.77128 194 180 166
-0.163591 -0.255995 3.77742 188 172 166
-0.159544 -0.24961 3.77326 199 183 172
-0.151729 -0.246293 3.77351 176 156 142
-0.148878 -0.243755 3.77645 128 162 174
-0.164412 -0.239391 3.77702 138 138 134
-0.162745 -0.239035 3.77664 153 156 154
-0.155363 -0.236994 3.77768 8 18 22
-0.164998 -0.23855 3.77666 72 73 68
-0.165174 -0.238969 3.77638 28 27 27
-0.163548 -0.237393 3.77576 153 154 148
-0.156941 -0.236222 3.77846 94 94 90
-0.16549 -0.237854 3.77598 144 142 138
-0.156165 -0.235038 3.77799 144 142 137
-0.156544 -0.234817 3.7772 166 162 156
-0.155023 -0.234146 3.77685 129 130 130
-0.148239 -0.282909 3.75803 114 140 142
-0.131248 -0.279404 3.76101 105 126 125
-0.128957 -0.279349 3.76172 162 194 200
-0.152292 -0.284556 3.76007 110 117 104
-0.131712 -0.277692 3.76241 122 136 130
-0.147676 -0.280437 3.75929 122 145 148
-0.145878 -0.279908 3.75899 86 122 126
-0.143891 -0.279295 3.75903 88 124 128
-0.150486 -0.281475 3.75986 48 80 82
-0.141179 -0.277682 3.75902 96 132 138
-0.138015 -0.277497 3.76078 136 162 167
-0.128846 -0.275945 3.76303 188 196 189
-0.153338 -0.281837 3.7613 106 107 94
-0.152679 -0.281312 3.76044 144 136 119
-0.137482 -0.277342 3.76088 54 110 130
-0.153113 -0.280619 3.76148 66 82 73
-0.142133 -0.277082 3.75987 92 124 130
-0.151429 -0.279473 3.76128 46 94 104
-0.14633 -0.277063 3.76091 149 170 166
-0.153183 -0.279174 3.76179 40 76 78
-0.148755 -0.277412 3.76114 142 161 160
-0.135514 -0.274899 3.76364 153 192 202
-0.15335 -0.277979 3.76201 126 132 122
-0.152141 -0.277492 3.76185 139 146 140
-0.133436 -0.268976 3.76426 105 156 156
-0.159621 -0.275814 3.76281 139 176 182
-0.136674 -0.267036 3.76274 120 134 119
-0.139776 -0.266792 3.76334 164 145 120
-0.136739 -0.266786 3.76376 214 196 168
-0.13472 -0.264464 3.76293 140 174 181
-0.140393 -0.264837 3.76158 252 225 180
-0.134237 -0.263339 3.76444 85 124 137
-0.154497 -0.255614 3.77113 108 76 57
-0.156778 -0.254988 3.77165 127 94 80
-0.148134 -0.250942 3.76948 140 112 93
-0.161887 -0.250084 3.77329 166 148 127
-0.157081 -0.248958 3.77646 176 179 178
-0.151592 -0.246349 3.77346 177 154 140
-0.155534 -0.237158 3.77673 14 26 28
-0.162198 -0.238168 3.77657 124 129 130
-0.159128 -0.238118 3.78033 48 105 121
-0.165155 -0.237924 3.77589 102 100 96
-0.15759 -0.235331 3.77852 60 60 58
-0.155216 -0.234417 3.77694 128 130 128
-0.170696 -0.233536 3.77878 80 84 80
-0.143822 -0.27907 3.75895 102 132 134
-0.131717 -0.276925 3.76161 128 139 132
-0.149759 -0.280584 3.76023 130 149 144
-0.147345 -0.28027 3.76013 144 160 158
-0.129042 -0.27602 3.76253 196 199 190
-0.137845 -0.276688 3.76136 75 117 132
-0.148535 -0.279384 3.76082 48 90 98
-0.152801 -0.280462 3.76219 44 80 78
-0.146211 -0.277179 3.76113 148 166 164
-0.137412 -0.275122 3.76196 160 188 197
-0.148353 -0.277394 3.76078 144 160 158
-0.135611 -0.275186 3.76452 152 192 204
-0.150398 -0.277287 3.76086 54 98 104
-0.152627 -0.277998 3.76284 137 140 130
-0.133274 -0.269035 3.76238 110 164 164
-0.163812 -0.276285 3.76507 50 83 82
-0.161682 -0.274921 3.76354 172 156 137
-0.138285 -0.267046 3.76313 48 82 76
-0.139892 -0.266078 3.76319 216 178 140
-0.155449 -0.269074 3.76401 124 128 120
-0.134168 -0.263597 3.76464 73 120 137
-0.148114 -0.251242 3.77051 136 108 89
-0.163914 -0.256044 3.7781 182 170 166
-0.159516 -0.249592 3.77488 196 179 169
-0.161656 -0.250073 3.7741 170 155 139
-0.154408 -0.248222 3.77589 135 108 92
-0.147862 -0.246667 3.77639 172 148 136
-0.164728 -0.250418 3.77773 59 80 78
-0.148885 -0.243574 3.77645 70 112 127
-0.161633 -0.23952 3.77717 21 56 72
-0.163665 -0.239112 3.77628 152 154 151
-0.157094 -0.235 3.77708 108 106 101
-0.152029 -0.279446 3.7614 42 91 102
-0.148907 -0.277547 3.76072 130 145 143
-0.136048 -0.275149 3.76314 156 194 205
-0.133496 -0.269112 3.76361 80 136 136
-0.161716 -0.274904 3.76353 172 156 135
-0.138882 -0.268351 3.7634 36 92 102
-0.14002 -0.266867 3.76281 181 156 126
-0.143033 -0.266107 3.7626 171 158 146
-0.140386 -0.264927 3.76142 242 202 156
-0.155638 -0.268982 3.76408 175 152 136
-0.133971 -0.264081 3.76478 76 130 147
-0.140881 -0.259209 3.76483 157 123 100
-0.15523 -0.256992 3.77107 196 191 185
-0.154686 -0.255418 3.77068 110 79 58
-0.156627 -0.255068 3.77148 130 98 84
-0.161581 -0.249985 3.77353 175 154 137
-0.157285 -0.249412 3.7764 192 180 172
-0.154595 -0.247683 3.77307 134 110 93
-0.151129 -0.246316 3.77462 182 167 154
-0.16332 -0.238495 3.77564 152 150 146
-0.159307 -0.238346 3.78049 43 104 123
-0.164883 -0.237884 3.77553 91 88 85
-0.155513 -0.234549 3.77683 146 146 143
-0.171085 -0.232409 3.77346 75 78 72
-0.169502 -0.232159 3.77428 72 76 69
-0.150319 -0.283306 3.75862 94 122 123
-0.152756 -0.284291 3.75995 98 112 106
-0.129067 -0.276336 3.76305 140 150 146
-0.148298 -0.278077 3.75951 86 113 116
-0.146 -0.276354 3.76055 148 173 176
-0.144027 -0.275323 3.76048 127 156 162
-0.155089 -0.228048 3.78085 56 68 72
-0.153641 -0.221889 3.77028 32 58 37
-0.156341 -0.26696 3.76564 127 100 76
-0.14797 -0.278726 3.76016 66 102 108
-0.156331 -0.266808 3.76519 138 112 88
-0.162955 -0.230715 3.76395 79 88 92
-0.155647 -0.234927 3.77712 150 150 145
-0.152097 -0.284172 3.75867 100 112 102
-0.138971 -0.277745 3.76081 97 134 144
-0.149651 -0.280691 3.75967 113 134 133
-0.163845 -0.276072 3.76512 56 86 86
-0.152636 -0.281525 3.76097 142 135 120
-0.139586 -0.274485 3.7622 141 179 189
-0.140856 -0.259027 3.76455 160 126 102
-0.138267 -0.274917 3.76283 101 148 161
-0.152193 -0.278271 3.76327 140 143 132
-0.149607 -0.280502 3.75985 136 154 148
-0.135095 -0.275033 3.76367 104 142 150
-0.15859 -0.280782 3.76467 68 152 179
-0.164103 -0.27553 3.76698 82 88 85
-0.153602 -0.258877 3.76993 124 108 90
-0.159504 -0.256936 3.76786 148 130 111
-0.14927 -0.251715 3.76784 125 104 86
-0.154677 -0.22645 3.77639 36 56 40
-0.127043 -0.278052 3.76256 166 168 162
-0.136921 -0.274874 3.76368 145 180 190
-0.132895 -0.269265 3.76281 124 176 176
-0.159445 -0.249802 3.77405 204 190 179
-0.165171 -0.239019 3.77741 126 127 123
-0.154748 -0.226629 3.77814 36 56 40
-0.155475 -0.222685 3.77027 35 60 40
-0.156098 -0.218556 3.76597 50 96 72
-0.128434 -0.278124 3.76237 148 158 156
-0.139549 -0.274525 3.76153 163 196 206
-0.133605 -0.268675 3.76399 106 158 154
-0.15486 -0.222863 3.77385 28 53 34
-0.126601 -0.274864 3.76428 112 141 147
-0.140093 -0.274074 3.76241 86 134 150
-0.161928 -0.249974 3.77363 166 146 126
-0.158921 -0.237659 3.78027 74 95 98
-0.126206 -0.275577 3.76684 88 134 146
-0.140731 -0.271195 3.76548 91 169 194
-0.148815 -0.243417 3.77872 84 125 141
-0.126058 -0.275979 3.76864 60 116 130
-0.141113 -0.268818 3.76 91 168 194
-0.163449 -0.23773 3.77926 130 130 126
-0.153159 -0.226709 3.77999 104 116 104
-0.153641 -0.278352 3.76303 90 104 96
-0.127838 -0.279104 3.76207 74 118 128
-0.127121 -0.27815 3.76286 162 166 160
-0.137248 -0.276484 3.76116 74 109 120
-0.142256 -0.276832 3.76 125 154 158
-0.160567 -0.282259 3.76389 92 155 171
-0.160518 -0.280254 3.76541 87 151 166
-0.160065 -0.276325 3.76289 60 108 120
-0.134656 -0.264277 3.76239 147 184 194
-0.138782 -0.264748 3.76258 254 221 177
-0.145766 -0.250724 3.77505 149 130 116
-0.16753 -0.242572 3.77322 153 154 149
-0.165218 -0.239001 3.77731 129 128 126
-0.135136 -0.276661 3.76244 104 164 184
-0.161989 -0.240083 3.77723 78 130 149
-0.16644 -0.232276 3.77549 59 72 61
-0.162956 -0.256395 3.77143 183 156 128
-0.163785 -0.239134 3.77476 88 91 90
-0.167799 -0.23263 3.77541 50 62 52
-0.16643 -0.232222 3.77481 52 64 54
-0.180397 -0.235083 3.77676 75 85 74
-0.160862 -0.28232 3.76351 86 148 164
-0.136802 -0.276953 3.76023 88 144 164
-0.14498 -0.26657 3.76309 76 76 70
-0.161282 -0.275225 3.74465 80 144 158
-0.142153 -0.275534 3.75988 160 178 177
-0.14971 -0.280537 3.75977 130 147 144
-0.139523 -0.274386 3.76108 160 192 202
-0.160166 -0.255366 3.77081 132 99 77
-0.173247 -0.244244 3.77011 150 136 120
-0.155865 -0.221588 3.76292 26 52 32
-0.145124 -0.209097 3.77496 174 173 148
-0.140383 -0.223743 3.80163 150 150 138
-0.140129 -0.275058 3.76181 52 97 114
-0.143338 -0.270822 3.76219 79 161 186
-0.165381 -0.240459 3.77722 46 82 94
-0.146935 -0.267731 3.75866 78 134 151
-0.126461 -0.276054 3.76473 198 200 192
-0.142267 -0.265313 3.75897 110 114 106
-0.134705 -0.264215 3.7639 72 120 137
-0.181992 -0.241758 3.77483 138 118 96
-0.181997 -0.241724 3.77455 138 118 96
-0.181476 -0.237295 3.77711 162 162 158
-0.164338 -0.251634 3.75431 111 84 67
-0.152474 -0.231382 3.79232 167 167 173
-0.176259 -0.244104 3.77134 144 126 106
-0.139628 -0.26403 3.76049 254 220 177
-0.153583 -0.294943 3.82402 134 158 162
-0.139537 -0.277975 3.76041 46 101 118
-0.144139 -0.277302 3.76069 146 166 166
-0.137278 -0.297864 3.75035 183 154 136
-0.133382 -0.291864 3.76084 78 109 116
-0.13932 -0.290174 3.75724 143 123 114
-0.143055 -0.290875 3.75674 51 60 64
-0.138248 -0.2891 3.75707 162 180 182
-0.1437 -0.290561 3.75686 126 148 155
-0.137784 -0.288505 3.75834 62 138 157
-0.129093 -0.279569 3.76203 130 173 182
-0.140483 -0.27556 3.76023 68 110 122
-0.159561 -0.276083 3.76389 146 177 181
-0.153059 -0.259331 3.76986 165 147 127
-0.163655 -0.23863 3.77591 162 164 158
-0.162953 -0.2383 3.77609 146 147 144
-0.154765 -0.235374 3.77766 31 38 40
-0.155399 -0.23508 3.77819 130 131 127
-0.163285 -0.236836 3.77643 138 137 135
-0.163193 -0.236672 3.77584 74 73 74
-0.158109 -0.23489 3.77663 132 132 128
-0.165482 -0.237345 3.77624 88 87 83
-0.166644 -0.233951 3.77558 52 54 56
-0.170137 -0.235345 3.77558 52 62 60
-0.169883 -0.223528 3.76983 108 130 88
-0.137356 -0.297694 3.74986 183 154 136
-0.142916 -0.290845 3.75697 56 61 62
-0.139444 -0.289242 3.75664 56 75 80
-0.138381 -0.275639 3.76132 62 103 117
-0.150106 -0.277637 3.76087 51 86 88
-0.140063 -0.273441 3.76207 106 163 179
-0.152079 -0.277255 3.76162 130 146 144
-0.156787 -0.249632 3.77561 179 159 148
-0.162525 -0.239182 3.77698 148 152 152
-0.154563 -0.234824 3.77667 90 92 96
-0.180321 -0.235661 3.77966 23 26 17
-0.154774 -0.222354 3.77356 18 48 26
-0.15373 -0.22195 3.76997 24 56 32
-0.145895 -0.303701 3.7593 110 102 98
-0.138362 -0.290357 3.75754 129 104 96
-0.1429 -0.290838 3.75695 56 61 62
-0.139322 -0.289515 3.757 69 81 84
-0.135513 -0.286457 3.75805 23 69 69
-0.13401 -0.284797 3.76005 10 58 52
-0.129615 -0.280056 3.7623 50 102 114
-0.12786 -0.279261 3.76238 103 140 146
-0.126564 -0.274987 3.7652 74 116 125
-0.138449 -0.275637 3.76119 63 106 119
-0.144083 -0.276905 3.75992 149 167 166
-0.138168 -0.275471 3.76163 98 134 146
-0.14134 -0.275635 3.76006 48 92 104
-0.140196 -0.274784 3.76091 74 108 120
-0.141959 -0.274963 3.75986 148 170 172
-0.139561 -0.274608 3.76159 152 186 196
-0.152785 -0.271945 3.76425 98 144 150
-0.139928 -0.266274 3.76304 228 192 149
-0.155142 -0.269223 3.76437 190 170 154
-0.16003 -0.237531 3.77626 64 99 108
-0.150435 -0.237331 3.78724 170 177 184
-0.164916 -0.238474 3.77611 20 21 18
-0.154689 -0.222163 3.77846 25 56 34
-0.153858 -0.221974 3.76959 26 58 35
-0.147585 -0.296345 3.76046 37 53 47
-0.1448 -0.293728 3.7577 134 118 108
-0.138974 -0.290494 3.75618 166 145 136
-0.142907 -0.290877 3.75689 56 61 62
-0.139246 -0.289604 3.75699 78 82 82
-0.137964 -0.28917 3.75734 156 184 188
-0.134309 -0.287325 3.75933 36 52 54
-0.135139 -0.286687 3.75855 24 62 62
-0.152932 -0.271962 3.76354 102 148 154
-0.138209 -0.266869 3.76264 94 114 98
-0.155248 -0.26909 3.76379 186 168 152
-0.16403 -0.257883 3.7778 122 101 87
-0.157085 -0.248538 3.77696 154 172 176
-0.150017 -0.244695 3.77546 165 184 186
-0.148522 -0.243483 3.77826 96 128 142
-0.163443 -0.237229 3.77546 142 142 141
-0.165679 -0.237699 3.77622 130 130 127
-0.180901 -0.235628 3.78107 60 72 62
-0.142234 -0.219354 3.77881 89 104 80
-0.133454 -0.291679 3.76065 76 114 124
-0.143983 -0.290987 3.75686 136 142 142
-0.135028 -0.287009 3.75929 20 57 56
-0.134406 -0.284977 3.7584 80 90 82
-0.126814 -0.274971 3.76487 96 132 139
-0.14582 -0.279795 3.75896 98 128 131
-0.146019 -0.278051 3.76074 114 138 140
-0.152145 -0.277328 3.76185 136 150 146
-0.147722 -0.246577 3.77762 172 148 136
-0.149535 -0.244532 3.77634 174 187 187
-0.15744 -0.235149 3.77945 96 98 94
-0.164995 -0.222179 3.76773 112 130 87
-0.145841 -0.298779 3.76177 188 178 174
-0.14752 -0.296061 3.76026 38 56 52
-0.144933 -0.293604 3.75798 130 114 104
-0.144386 -0.293181 3.75832 134 116 105
-0.144119 -0.291154 3.75679 136 135 131
-0.138712 -0.289075 3.75629 163 177 177
-0.135204 -0.286784 3.7589 18 52 49
-0.134235 -0.285167 3.75983 4 50 44
-0.130151 -0.280529 3.76126 36 100 114
-0.125823 -0.280336 3.76554 59 124 142
-0.150782 -0.283693 3.75857 108 130 126
-0.126939 -0.275028 3.765 67 119 130
-0.138131 -0.277936 3.76292 50 103 118
-0.148587 -0.279057 3.76078 54 94 100
-0.142189 -0.275365 3.76019 154 172 173
-0.139855 -0.274281 3.76291 79 130 146
-0.148261 -0.268326 3.76208 32 82 91
-0.143919 -0.291485 3.75805 135 135 130
-0.137767 -0.289556 3.75774 162 163 156
-0.13535 -0.286338 3.75789 30 39 33
-0.133893 -0.28524 3.7607 24 50 38
-0.136625 -0.283047 3.76132 82 161 186
-0.125999 -0.280178 3.76487 65 124 140
-0.129102 -0.279221 3.76205 181 198 194
-0.139598 -0.280947 3.75727 119 151 157
-0.151687 -0.284395 3.76005 106 116 104
-0.147935 -0.282666 3.75777 132 148 144
-0.128156 -0.276235 3.76307 196 196 186
-0.152266 -0.283103 3.7597 46 76 74
-0.145801 -0.279792 3.75936 96 126 129
-0.126933 -0.274848 3.76478 72 120 131
-0.130039 -0.275265 3.76292 44 106 120
-0.140345 -0.276578 3.7628 49 102 117
-0.135347 -0.27513 3.76385 157 194 201
-0.14203 -0.276094 3.76231 160 172 170
-0.136647 -0.265898 3.76327 216 198 172
-0.148121 -0.268624 3.76226 30 78 88
-0.164897 -0.237851 3.77475 164 162 156
-0.133494 -0.291269 3.76013 52 106 122
-0.138135 -0.2895 3.75685 168 165 158
-0.126216 -0.280434 3.76529 48 124 143
-0.147733 -0.282838 3.7584 126 146 143
-0.127185 -0.274659 3.76437 60 130 148
-0.137875 -0.276992 3.76246 134 160 166
-0.141713 -0.275934 3.76199 153 170 170
-0.150948 -0.268338 3.75516 63 111 122
-0.151038 -0.246207 3.77283 180 164 152
-0.152777 -0.234409 3.78223 42 48 54
-0.132107 -0.297216 3.75499 64 50 42
-0.143742 -0.279384 3.7585 94 130 138
-0.148659 -0.276742 3.76107 90 128 132
-0.134594 -0.263585 3.76306 80 119 130
-0.159452 -0.237368 3.77923 15 34 40
-0.154822 -0.227602 3.77783 13 28 21
-0.142353 -0.220073 3.77738 76 86 62
-0.136226 -0.297459 3.7487 190 158 144
-0.128606 -0.279446 3.76097 55 110 125
-0.150232 -0.280645 3.76001 58 82 84
-0.156722 -0.248675 3.7764 151 158 158
-0.164969 -0.238387 3.77611 12 11 8
-0.180793 -0.235425 3.7804 63 74 65
-0.137705 -0.295638 3.75013 186 134 130
-0.144809 -0.293746 3.75752 138 122 114
-0.131202 -0.283516 3.76473 70 150 172
-0.134558 -0.2777 3.76157 67 133 156
-0.126506 -0.275363 3.76374 203 206 201
-0.14728 -0.278236 3.76068 156 174 171
-0.140028 -0.273593 3.76208 120 168 182
-0.158275 -0.270117 3.7629 214 180 162
-0.140694 -0.25886 3.76504 152 124 107
-0.147759 -0.250773 3.77043 144 118 98
-0.131997 -0.297434 3.75324 30 22 18
-0.131616 -0.298134 3.75727 68 54 48
-0.137659 -0.295861 3.75086 189 136 133
-0.147432 -0.29688 3.76094 108 111 108
-0.133573 -0.284734 3.75651 66 68 72
-0.144432 -0.275472 3.76019 152 173 170
-0.161496 -0.276389 3.7629 54 96 100
-0.140517 -0.258989 3.76528 151 122 102
-0.132513 -0.28264 3.75801 66 147 171
-0.166134 -0.240354 3.77744 24 40 48
-0.180157 -0.23579 3.77997 36 38 28
-0.181054 -0.235762 3.7812 62 72 63
-0.145518 -0.299541 3.76055 188 174 167
-0.133336 -0.29645 3.76366 176 159 150
-0.145445 -0.29828 3.75908 143 122 110
-0.131855 -0.283196 3.76096 65 146 170
-0.157098 -0.249473 3.77659 188 176 167
-0.161689 -0.239779 3.77752 10 53 70
-0.143094 -0.220539 3.77437 133 140 118
-0.14495 -0.293699 3.75752 138 122 114
-0.142123 -0.220471 3.78095 138 140 118
-0.144201 -0.210866 3.77852 92 102 70
-0.139997 -0.281057 3.75699 143 166 170
-0.15282 -0.283329 3.76049 44 70 68
-0.148018 -0.247015 3.77595 172 147 133
-0.139011 -0.306759 3.7456 111 86 74
-0.134494 -0.305657 3.74669 145 125 116
-0.133554 -0.305073 3.74716 28 15 10
-0.141404 -0.307269 3.74773 95 73 62
-0.141679 -0.306711 3.74792 107 84 70
-0.131648 -0.303622 3.74904 164 145 139
-0.128899 -0.303228 3.75058 66 66 68
-0.139171 -0.305037 3.74671 40 20 14
-0.131137 -0.303371 3.75003 116 100 95
-0.142313 -0.306011 3.74831 94 74 64
-0.142697 -0.305965 3.7482 48 28 18
-0.141748 -0.305618 3.74785 52 30 18
-0.141507 -0.304646 3.74834 40 16 8
-0.13878 -0.303704 3.74743 46 18 10
-0.132818 -0.301716 3.74897 56 40 33
-0.135101 -0.301956 3.74778 168 156 149
-0.133932 -0.301592 3.74853 150 144 139
-0.140822 -0.303633 3.74816 148 126 116
-0.132881 -0.301092 3.74904 178 159 149
-0.13404 -0.300874 3.74898 186 174 166
-0.131247 -0.283837 3.7612 78 158 178
-0.152191 -0.232085 3.78921 145 147 142
-0.166421 -0.232192 3.77512 54 67 57
-0.1613 -0.23018 3.77632 60 61 60
-0.1624 -0.221215 3.76455 118 145 104
-0.135063 -0.302108 3.74817 171 158 152
-0.133929 -0.301564 3.7484 150 144 139
-0.140751 -0.303651 3.74817 120 102 94
-0.140414 -0.302794 3.74837 24 9 2
-0.129249 -0.278467 3.76121 198 204 200
-0.161549 -0.230551 3.7775 60 62 61
-0.162528 -0.221139 3.76185 116 142 102
-0.135929 -0.303648 3.74654 30 10 6
-0.132417 -0.302789 3.74745 32 12 9
-0.131168 -0.303277 3.75003 119 102 97
-0.132934 -0.301122 3.74877 182 163 154
-0.136277 -0.301631 3.74849 188 164 154
-0.137802 -0.299753 3.74638 188 148 121
-0.145282 -0.303442 3.75892 45 30 19
-0.13815 -0.288697 3.75746 118 158 166
-0.139524 -0.26447 3.76093 246 212 164
-0.1544 -0.232 3.77804 48 52 55
-0.166828 -0.23395 3.77521 44 46 45
-0.136061 -0.302687 3.74722 47 26 22
-0.141314 -0.304404 3.74773 22 6 2
-0.133019 -0.301967 3.74833 24 11 4
-0.139563 -0.303417 3.74804 134 114 102
-0.135583 -0.301858 3.74744 170 152 143
-0.140804 -0.303933 3.74875 150 128 116
-0.140363 -0.302945 3.74801 25 12 8
-0.139572 -0.30296 3.74891 156 132 115
-0.134877 -0.301396 3.74851 30 16 13
-0.145897 -0.303752 3.75939 162 154 150
-0.158967 -0.238006 3.77897 62 116 128
-0.155196 -0.222929 3.778 18 52 28
-0.134811 -0.301493 3.74876 31 18 14
-0.13789 -0.300084 3.74721 186 145 118
-0.147168 -0.305369 3.75787 92 84 81
-0.145377 -0.302874 3.75681 38 29 22
-0.14511 -0.300551 3.76076 180 164 156
-0.146504 -0.302809 3.75471 158 152 148
-0.145478 -0.303097 3.75654 44 36 30
-0.131641 -0.298336 3.75699 64 50 46
-0.145224 -0.300993 3.76114 182 168 161
-0.13038 -0.281623 3.76185 35 106 121
-0.152301 -0.279541 3.76119 42 88 94
-0.141872 -0.220597 3.78249 96 106 83
-0.142589 -0.275973 3.75634 118 145 149
-0.153766 -0.281978 3.76177 113 113 98
-0.146045 -0.27789 3.75998 142 163 164
-0.164789 -0.231002 3.77446 55 68 58
-0.147949 -0.278603 3.76013 68 102 108
-0.164782 -0.230965 3.77524 45 60 50
-0.141363 -0.277757 3.76075 100 132 140
-0.132986 -0.304723 3.74734 40 30 27
-0.139628 -0.302624 3.74773 169 142 126
-0.147104 -0.304824 3.75688 103 94 90
-0.128569 -0.300372 3.76161 56 52 48
-0.178063 -0.234764 3.77587 31 40 30
-0.162797 -0.239704 3.77733 9 25 32
-0.163206 -0.233685 3.77545 57 58 58
-0.138668 -0.304067 3.74656 152 120 103
-0.155491 -0.222499 3.76962 14 46 22
-0.164695 -0.230933 3.77531 56 68 58
-0.172136 -0.24646 3.77116 148 136 124
-0.137261 -0.297953 3.75127 164 135 118
-0.141195 -0.277736 3.76203 106 136 144
-0.137187 -0.298203 3.7518 170 140 124
-0.145532 -0.227474 3.79679 95 104 84
-0.185914 -0.237558 3.78311 61 64 42
-0.149993 -0.267358 3.76174 52 90 96
-0.132779 -0.296823 3.75279 138 120 112
-0.147432 -0.296465 3.76036 36 40 34
-0.13823 -0.28887 3.75701 154 190 196
-0.143948 -0.266487 3.7635 73 82 80
-0.165513 -0.240416 3.78007 15 22 26
-0.156158 -0.23321 3.77355 66 70 76
-0.16927 -0.236006 3.77539 60 65 64
-0.13242 -0.296895 3.75333 58 43 36
-0.153107 -0.284109 3.76283 79 98 95
-0.13874 -0.267568 3.76371 112 136 125
-0.135623 -0.264782 3.75999 100 144 156
-0.163565 -0.257594 3.77838 122 94 75
-0.157006 -0.235862 3.7778 144 143 139
-0.154214 -0.233313 3.78019 62 68 74
-0.155878 -0.223913 3.77942 41 67 46
-0.160971 -0.220518 3.76926 98 124 86
-0.143881 -0.279331 3.75878 90 125 133
-0.15294 -0.230665 3.77964 196 190 183
-0.133577 -0.291634 3.76074 80 119 130
-0.147506 -0.278271 3.75912 124 146 145
-0.136844 -0.267268 3.76713 90 109 95
-0.164216 -0.240291 3.776 22 46 54
-0.144937 -0.29371 3.75791 136 118 108
-0.131314 -0.279125 3.76156 129 140 133
-0.153374 -0.277941 3.76253 130 132 120
-0.165077 -0.24027 3.7754 8 22 28
-0.147432 -0.279925 3.75883 138 154 155
-0.148294 -0.268786 3.76195 36 85 93
-0.166853 -0.246801 3.7794 118 125 128
-0.142368 -0.21902 3.77827 86 102 76
-0.140498 -0.302714 3.74841 34 20 10
-0.170675 -0.223853 3.77843 89 116 78
-0.139911 -0.274238 3.76205 114 159 170
-0.153671 -0.268242 3.76365 138 118 98
-0.14424 -0.260359 3.76464 159 132 110
-0.140455 -0.259237 3.76607 166 132 108
-0.160669 -0.276066 3.76394 160 172 166
-0.144223 -0.260375 3.76455 160 132 110
-0.140413 -0.219343 3.78583 136 138 116
-0.181938 -0.240435 3.78605 90 92 78
-0.184384 -0.2407 3.78976 198 192 180
-0.14279 -0.220746 3.78037 57 74 54
-0.166696 -0.246302 3.78262 120 124 122
-0.166499 -0.246335 3.78208 106 111 110
-0.166463 -0.247439 3.78197 124 128 132
-0.137809 -0.298627 3.74716 136 102 82
-0.132196 -0.297042 3.75456 54 40 35
-0.137691 -0.295678 3.75038 195 144 140
-0.137443 -0.289559 3.75982 133 176 185
-0.129728 -0.279932 3.76158 62 109 119
-0.147425 -0.277897 3.76038 154 170 167
-0.147592 -0.245944 3.77643 165 151 144
-0.166711 -0.232298 3.77402 33 41 36
-0.132015 -0.297259 3.75503 50 40 36
-0.155014 -0.223441 3.78266 16 48 24
-0.154504 -0.231824 3.77637 60 63 66
-0.169481 -0.23576 3.7763 104 110 108
-0.16968 -0.2358 3.77732 90 97 96
-0.182545 -0.239553 3.78123 96 96 86
-0.141891 -0.21957 3.78207 107 117 94
-0.13717 -0.282874 3.75907 70 148 172
-0.144243 -0.276957 3.75978 150 170 168
-0.142742 -0.219604 3.77738 130 142 117
-0.138733 -0.290464 3.75588 166 144 136
-0.133294 -0.285172 3.75906 86 54 54
-0.144299 -0.279553 3.76122 91 122 126
-0.140739 -0.271084 3.76615 75 154 177
-0.157541 -0.230317 3.77871 47 48 51
-0.152913 -0.230279 3.78147 150 153 154
-0.153192 -0.230122 3.77747 168 166 170
-0.152875 -0.230645 3.7807 169 168 172
-0.14578 -0.226801 3.78561 220 214 203
-0.142115 -0.219235 3.77945 74 96 68
-0.137087 -0.275889 3.76138 148 180 188
-0.142348 -0.270233 3.75991 81 158 182
-0.154924 -0.233401 3.77974 60 62 66
-0.155101 -0.228434 3.7747 30 38 36
-0.154046 -0.218473 3.77959 51 102 79
-0.142671 -0.219053 3.77487 156 153 130
-0.172029 -0.224559 3.76507 83 112 78
-0.135215 -0.29425 3.7558 188 170 162
-0.16277 -0.240057 3.77389 57 119 140
-0.154728 -0.218451 3.77548 46 98 74
-0.152775 -0.23349 3.77773 172 171 176
-0.153529 -0.280451 3.76904 94 105 98
-0.143364 -0.226842 3.79967 224 220 207
-0.182214 -0.239359 3.77967 93 92 74
-0.138503 -0.275777 3.76058 86 116 125
-0.145964 -0.278059 3.76036 141 160 161
-0.166465 -0.244855 3.78049 87 100 102
-0.186234 -0.237449 3.78389 92 94 82
-0.162206 -0.240154 3.77671 74 131 150
-0.158804 -0.23803 3.77919 73 120 128
-0.159456 -0.237145 3.77794 22 47 49
-0.147189 -0.265198 3.76243 176 166 158
-0.12885 -0.277678 3.76269 144 156 153
-0.140399 -0.278357 3.76302 116 144 148
-0.185617 -0.23914 3.791 175 170 162
-0.160571 -0.229762 3.77571 60 63 58
-0.159804 -0.229483 3.77619 48 50 47
-0.154047 -0.221684 3.7682 36 65 41
-0.128821 -0.307525 3.74734 68 63 60
-0.130685 -0.306756 3.74567 59 70 67
-0.130391 -0.306432 3.74651 60 67 66
-0.128213 -0.305139 3.74938 54 54 56
-0.138814 -0.306887 3.74642 128 101 87
-0.137918 -0.304378 3.7467 124 84 64
-0.136322 -0.297156 3.74853 196 168 156
-0.13201 -0.297421 3.75812 56 44 40
-0.137614 -0.296162 3.75174 208 161 155
-0.152398 -0.233921 3.78131 172 172 178
-0.134494 -0.30542 3.74611 138 117 106
-0.139553 -0.302495 3.74807 172 146 130
-0.152309 -0.233647 3.78178 172 170 175
-0.152705 -0.231788 3.78268 148 150 145
-0.134475 -0.305688 3.74689 137 117 108
-0.138824 -0.307025 3.74633 72 52 42
-0.1345 -0.305562 3.74627 115 96 87
-0.141386 -0.306687 3.74748 114 84 64
-0.132788 -0.304422 3.74857 153 128 118
-0.128916 -0.303379 3.75079 78 79 81
-0.135801 -0.303698 3.74664 26 7 2
-0.142491 -0.306088 3.74917 107 81 64
-0.141221 -0.306818 3.74737 110 80 60
-0.131641 -0.303513 3.74925 125 108 102
-0.14131 -0.306116 3.74836 32 14 8
-0.139392 -0.305102 3.7468 36 16 9
-0.14272 -0.306067 3.74936 99 72 54
-0.13912 -0.303969 3.74766 30 14 8
-0.141334 -0.304559 3.74814 35 14 9
-0.135697 -0.301863 3.74774 164 143 132
-0.140445 -0.303363 3.74829 33 22 14
-0.139059 -0.30405 3.74756 30 12 7
-0.141329 -0.304599 3.74831 32 12 8
-0.141165 -0.303925 3.7493 156 130 112
-0.135944 -0.301799 3.74766 146 124 112
-0.134769 -0.301676 3.74892 26 16 14
-0.130018 -0.29867 3.75975 56 51 48
-0.151914 -0.236487 3.78443 149 166 178
-0.147018 -0.304939 3.75643 54 46 42
-0.14545 -0.303689 3.756 39 32 28
-0.144537 -0.291482 3.7563 134 138 134
-0.18268 -0.23943 3.77964 70 76 59
-0.130531 -0.306997 3.74679 65 74 70
-0.164143 -0.237857 3.77602 156 156 150
-0.156034 -0.267177 3.76926 156 136 112
-0.131555 -0.303174 3.7501 148 126 118
-0.137851 -0.274837 3.75602 78 119 132
-0.137096 -0.301066 3.74975 182 142 116
-0.182525 -0.239284 3.77962 82 82 64
-0.135238 -0.27648 3.76232 102 158 180
-0.130549 -0.307924 3.74551 64 68 68
-0.135763 -0.302341 3.74721 112 93 86
-0.160774 -0.233139 3.77607 40 40 39
-0.131931 -0.290101 3.76047 50 100 109
-0.154347 -0.226758 3.78121 38 59 44
-0.160771 -0.282261 3.76371 102 162 176
-0.138708 -0.273782 3.77479 80 160 188
-0.145848 -0.266267 3.76278 126 118 112
-0.145321 -0.265572 3.75983 76 74 69
-0.139929 -0.224755 3.80608 202 191 182
-0.142059 -0.22051 3.78186 81 94 71
-0.143309 -0.224866 3.78929 152 156 140
-0.147002 -0.278265 3.7602 133 151 152
-0.140005 -0.274299 3.76093 146 180 192
-0.132636 -0.286859 3.75992 101 128 140
-0.152661 -0.234441 3.78175 76 80 82
-0.139996 -0.287704 3.75531 98 151 164
-0.157512 -0.21882 3.76478 52 99 74
-0.162356 -0.255947 3.77261 125 89 63
-0.151181 -0.279337 3.75947 78 100 100
-0.154594 -0.234832 3.77653 84 89 90
-0.158906 -0.22452 3.78866 72 101 68
-0.138529 -0.291526 3.75897 180 156 148
-0.140093 -0.287877 3.75608 98 152 165
-0.135895 -0.31033 3.74319 55 54 50
-0.134968 -0.301064 3.74578 159 143 134
-0.145582 -0.313022 3.75319 20 14 10
-0.140538 -0.307772 3.74912 102 81 65
-0.141404 -0.307297 3.74764 50 33 25
-0.139233 -0.304901 3.74673 34 15 8
-0.138603 -0.304136 3.74678 156 124 107
-0.134663 -0.305665 3.74627 90 72 63
-0.142242 -0.307759 3.75414 86 64 52
-0.135542 -0.303999 3.74724 82 60 50
-0.140417 -0.303134 3.74697 50 36 28
-0.140841 -0.303949 3.74913 150 118 97
-0.136643 -0.283283 3.76197 72 154 180
-0.134392 -0.308932 3.74575 42 41 40
-0.136301 -0.301707 3.74882 198 174 160
-0.136357 -0.297351 3.74843 196 169 157
-0.145003 -0.298837 3.76055 101 72 56
-0.163599 -0.27374 3.76451 113 102 86
-0.147682 -0.250531 3.77155 142 115 98
-0.157176 -0.220197 3.76413 82 120 83
-0.156885 -0.220058 3.76325 84 122 86
-0.152757 -0.234238 3.78057 91 93 96
-0.159765 -0.22951 3.77613 50 55 54
-0.163546 -0.233521 3.77211 44 44 46
-0.164071 -0.252527 3.60124 120 110 96
-0.141678 -0.316673 3.75036 64 55 46
-0.134868 -0.310952 3.74368 61 60 60
-0.132172 -0.310563 3.74543 54 55 56
-0.134514 -0.309506 3.74362 47 46 44
-0.130505 -0.307846 3.74547 61 64 63
-0.134883 -0.311189 3.74389 57 56 56
-0.1344 -0.309773 3.74453 43 42 40
-0.13054 -0.308087 3.74529 52 54 55
-0.13066 -0.308305 3.74571 52 54 55
-0.139481 -0.303252 3.74761 128 109 98
-0.141048 -0.306756 3.74735 113 80 62
-0.131384 -0.303416 3.75058 153 130 120
-0.133048 -0.302377 3.7496 35 22 19
-0.13318 -0.302254 3.74778 79 62 57
-0.134109 -0.302134 3.75026 30 19 16
-0.132345 -0.302537 3.75394 177 168 162
-0.140109 -0.302893 3.7515 162 128 110
-0.13488 -0.309002 3.74463 54 53 51
-0.126573 -0.303984 3.75382 44 40 38
-0.143605 -0.221006 3.7782 70 101 74
-0.139579 -0.303355 3.75317 156 124 106
-0.182519 -0.241069 3.77498 210 194 170
-0.149389 -0.241145 3.76877 140 154 163
-0.152344 -0.234512 3.78055 214 206 193
-0.13303 -0.285124 3.7587 57 76 84
-0.137369 -0.297711 3.74955 194 166 154
-0.138672 -0.304012 3.74628 150 121 104
-0.13998 -0.302774 3.74819 74 57 49
-0.134475 -0.302362 3.74802 31 17 13
-0.134134 -0.314778 3.74846 38 26 12
-0.131893 -0.309983 3.7402 64 60 54
-0.136202 -0.311204 3.74104 68 62 54
-0.136449 -0.311078 3.73985 68 61 54
-0.136245 -0.305589 3.7425 30 17 10
-0.139869 -0.301694 3.74852 150 110 88
-0.135813 -0.298786 3.74918 188 157 139
-0.129465 -0.30806 3.74405 65 60 58
-0.144875 -0.304983 3.76858 112 98 92
-0.157795 -0.27584 3.76402 66 147 169
-0.141556 -0.308577 3.75391 46 32 22
-0.141568 -0.277395 3.75728 98 131 134
-0.146062 -0.310283 3.75163 14 9 5
-0.157841 -0.268827 3.76374 196 166 146
-0.131591 -0.267456 3.76328 96 184 204
-0.145144 -0.314962 3.75362 102 94 89
-0.145158 -0.315105 3.75342 163 154 148
-0.145203 -0.315392 3.75544 106 98 92
-0.14484 -0.297532 3.75772 102 74 56
-0.125445 -0.27688 3.76688 131 128 122
-0.133756 -0.283567 3.76147 86 169 194
-0.133151 -0.282149 3.75427 78 162 186
