ply
format ascii 1.0
element vertex 1300
property float x
property float y
property float z
property uchar red
property uchar green
property uchar blue
end_header
0.57306 -0.357426 6.20214 157 156 135
1.15047 -0.317546 6.35199 100 90 46
0.605564 -0.327751 6.21321 159 159 134
0.880935 -0.316113 6.36043 130 136 102
0.623877 -0.31972 6.19903 158 158 128
0.767384 -0.311698 6.21619 231 234 190
0.644863 -0.315448 6.2182 163 162 130
0.579967 -0.302987 6.17187 170 168 142
1.13399 -0.253183 6.36698 228 226 190
0.721109 -0.276592 6.33249 224 226 188
1.14135 -0.23309 6.36565 196 168 138
1.13307 -0.230204 6.32441 142 112 75
1.14289 -0.223489 6.30881 196 180 148
1.11757 -0.217577 6.34874 214 210 175
0.471035 -0.253722 6.29408 156 133 104
1.03748 -0.207906 6.49373 192 189 152
0.483232 -0.224996 6.41303 158 126 96
1.04634 -0.157917 6.43361 218 223 186
1.03929 -0.153215 6.39882 192 188 147
0.820799 -0.151862 6.22253 144 139 132
0.84063 -0.135986 6.34981 104 100 89
1.0942 -0.108028 6.48383 98 64 32
1.05358 -0.0855399 6.2577 131 86 57
0.910248 -0.0697592 6.35048 34 30 13
1.03376 -0.061985 6.27571 76 46 20
1.02931 -0.0535538 6.23581 213 171 152
0.943297 -0.0579635 6.17256 61 50 33
0.949709 -0.0576096 6.17225 111 100 86
0.714639 -0.0944777 5.9331 54 50 25
1.02201 -0.0364673 6.27045 70 40 19
0.993856 -0.0216132 6.15026 159 130 105
0.56659 -0.0435928 6.17187 130 104 84
0.545886 -0.0327379 6.14793 122 76 44
0.727954 -0.0592157 5.87585 128 136 102
0.537431 -0.027466 6.13387 210 163 132
0.917629 -0.000266242 6.13088 48 33 16
0.926072 0.00167425 6.11301 70 54 33
0.937182 0.00104686 6.09551 182 162 154
1.02109 0.000106103 6.0565 212 210 193
0.911647 0.0048546 6.12966 134 98 76
0.917506 0.0068206 6.11625 89 62 41
0.924165 0.020108 6.10551 162 127 116
0.997132 0.0382262 6.17675 232 220 210
1.03631 0.0193815 6.00875 142 140 114
0.5171 0.0528475 6.38759 176 141 126
0.983918 0.0243745 6.02648 116 114 87
1.00206 0.0611498 6.21055 162 140 134
0.956959 0.0554446 6.18512 101 66 60
0.670979 0.0301257 6.11257 120 78 62
0.519946 0.0937046 6.40888 78 38 18
1.05452 0.0467681 5.98098 224 219 201
0.705737 0.0336707 5.97284 198 156 152
0.516654 0.109921 6.40782 190 165 142
1.02189 0.0589334 5.98571 123 122 102
0.589467 0.0820764 6.22819 69 33 19
0.534042 0.127386 6.39459 186 161 148
0.528035 0.126517 6.38139 201 188 166
0.535706 0.136295 6.4097 165 134 126
0.531759 0.158999 6.48714 101 72 55
0.886352 0.116821 6.16301 180 147 144
1.04248 0.0846431 5.96917 138 136 117
0.929295 0.218173 6.31271 108 68 62
0.903516 0.21699 6.27049 82 50 50
1.06834 0.171815 6.00942 188 169 160
0.922274 0.337477 6.51709 104 66 63
0.908712 0.337791 6.42527 102 58 53
0.617693 0.306079 6.36729 147 102 93
1.31414 -0.533207 6.1331 197 198 158
0.357252 -0.578186 6.11802 124 121 98
1.26496 -0.50266 6.11882 213 210 170
0.412427 -0.537464 6.13458 142 140 102
0.443513 -0.508564 6.15237 191 189 155
0.429981 -0.495434 6.11513 148 147 122
0.659452 -0.494324 6.35127 169 177 135
0.478116 -0.451462 6.13103 156 154 136
0.453483 -0.439798 6.0625 160 157 133
0.648277 -0.432797 6.2769 176 179 136
0.816337 -0.417346 6.27365 86 93 46
0.533559 -0.360749 6.14723 168 166 142
0.574654 -0.35777 6.20328 172 172 149
0.557237 -0.329163 6.13482 161 159 138
1.0977 -0.263599 6.39114 204 209 175
1.13397 -0.258012 6.37488 222 227 189
0.711947 -0.27244 6.24669 229 232 194
0.496971 -0.283566 6.33849 175 178 132
1.13859 -0.2352 6.32672 230 227 191
1.11732 -0.244605 6.36756 195 180 148
1.13641 -0.228918 6.33419 130 97 60
1.11722 -0.22637 6.34998 117 96 65
1.10237 -0.223632 6.35821 214 218 183
1.13504 -0.220057 6.40176 228 226 189
1.03811 -0.221411 6.42089 110 98 65
1.14343 -0.209789 6.30899 232 222 194
1.03873 -0.208131 6.49686 176 171 134
0.69541 -0.205024 6.18982 149 152 128
0.492934 -0.211698 6.32844 190 155 118
0.511572 -0.196695 6.46346 118 81 52
0.493237 -0.179889 6.43228 115 78 48
0.525741 -0.168127 6.52678 88 50 24
1.08104 -0.0764984 6.40147 250 238 228
1.0494 -0.0536499 6.25118 150 106 82
1.05343 -0.0433804 6.2403 172 115 90
1.04579 -0.0309706 6.20872 184 145 131
1.0233 -0.0232962 6.19025 134 106 74
1.03159 -0.0137755 6.21143 202 176 154
0.813281 -0.0382067 6.0791 50 34 23
0.56567 -0.0446371 6.16316 132 104 82
0.596258 -0.0328632 6.17951 73 34 25
0.846498 -0.0202751 6.04342 48 24 16
0.91997 1.64047e-05 6.10668 168 147 132
0.936652 0.000436454 6.08915 178 162 151
0.8962 0.0048349 6.1002 190 146 124
0.920844 0.0177164 6.09291 167 133 123
0.562022 0.0143327 6.17206 158 120 106
1.0344 0.0179735 6.00412 168 166 144
0.568476 0.0253363 6.23233 88 52 36
1.00163 0.0583064 6.20877 185 165 158
1.06096 0.0464737 6.00618 175 170 145
0.537116 0.107138 6.40719 56 14 2
1.02525 0.0617046 5.99712 125 122 105
0.911947 0.0977501 6.17947 140 107 105
1.07243 0.068464 5.98212 182 176 156
0.534643 0.129295 6.39223 166 146 135
0.885849 0.116848 6.16172 182 148 147
0.530527 0.175258 6.43468 120 87 66
0.97539 0.196168 6.31608 154 128 126
0.540807 0.20434 6.46428 184 164 139
0.691271 0.197381 6.23627 170 151 152
0.953792 0.271802 6.38344 139 90 86
0.942488 0.333156 6.5201 88 49 47
0.895621 0.296546 6.37886 93 58 54
0.640395 0.351023 6.45647 118 70 57
0.540507 -0.713951 6.46091 175 175 134
0.37655 -0.53427 6.08571 170 164 143
0.417349 -0.531393 6.1414 192 190 152
0.429339 -0.500594 6.15182 151 150 126
0.842444 -0.460758 6.28206 121 126 85
0.675992 -0.426726 6.23604 165 172 134
0.548663 -0.413286 6.19294 166 168 132
0.540217 -0.391426 6.18028 162 160 136
0.533579 -0.358967 6.137 180 176 152
0.742667 -0.339911 6.24451 156 156 108
0.554997 -0.333951 6.16456 180 178 156
0.772843 -0.315704 6.26638 232 237 195
0.354581 -0.32503 6.33214 148 146 100
0.87473 -0.286702 6.35111 114 126 100
1.09611 -0.262564 6.39153 216 222 186
0.465388 -0.294121 6.26125 154 154 112
0.652275 -0.284068 6.22786 152 150 122
1.1388 -0.25028 6.36365 184 160 127
1.12328 -0.246755 6.37656 86 72 32
1.14299 -0.243009 6.37196 176 158 122
0.687551 -0.2067 6.5863 38 22 8
1.01699 -0.18296 6.57926 212 220 182
0.769105 -0.203634 5.94682 106 112 88
0.489369 -0.202274 6.36868 218 208 172
0.969672 -0.166521 6.48317 68 38 18
1.10152 -0.144964 6.25907 174 131 114
0.525399 -0.167693 6.49648 90 50 24
1.04902 -0.136339 6.37775 126 96 67
1.07177 -0.0939318 6.4382 73 40 15
0.521587 -0.154574 6.04631 151 126 98
0.814042 -0.123426 6.20058 106 100 82
0.519893 -0.125913 6.25749 103 82 58
1.03221 -0.0762406 6.2878 86 56 36
1.03351 -0.0524943 6.25851 188 144 119
1.0117 -0.0433662 6.1886 132 91 68
0.946361 -0.0571137 6.16837 96 87 69
0.984773 -0.0401333 6.21227 43 26 12
0.561593 -0.086601 5.92293 100 74 60
1.01659 -0.017935 6.15676 224 200 185
1.00258 -0.0176474 6.06364 181 174 156
0.896062 -0.00498725 6.14457 126 85 66
0.902604 -0.00587554 6.0926 46 27 14
0.929698 -0.00160427 6.07893 157 140 130
0.675399 -0.0208581 6.00496 132 116 104
1.02601 0.00754761 6.03732 192 189 171
1.04852 0.0412973 5.97857 147 143 116
0.505443 0.0903586 6.41114 162 131 102
0.53762 0.107278 6.39416 66 22 8
0.519448 0.121921 6.4063 110 90 68
1.03661 0.082943 5.96075 121 118 102
0.529111 0.190973 6.51322 146 121 98
0.552821 0.219825 6.47608 80 36 18
0.597637 0.230817 6.44847 92 48 37
0.737987 0.184084 6.23201 80 38 32
0.897203 0.214818 6.29384 104 64 64
0.698539 0.202637 6.24039 83 46 39
1.08809 0.163972 5.97268 222 216 212
1.10158 0.169971 5.97814 138 92 70
0.708205 0.32858 6.363 149 133 133
0.58533 -0.609656 6.36889 176 177 146
0.359571 -0.543278 6.10506 106 106 85
0.373778 -0.539126 6.10943 176 166 144
0.394085 -0.498294 6.06921 122 116 84
0.681991 -0.533272 6.39218 220 224 181
0.547217 -0.415259 6.21451 158 158 129
0.535331 -0.409633 6.29309 151 148 124
0.533469 -0.35563 6.11436 180 175 152
0.351883 -0.326564 6.339 195 194 145
1.09764 -0.264909 6.40139 218 226 189
0.651024 -0.284579 6.22903 154 152 124
0.706784 -0.275444 6.20861 227 234 194
1.12553 -0.244961 6.3694 104 80 48
1.15625 -0.225474 6.35443 210 184 158
1.05623 -0.230517 6.51709 177 174 136
0.457028 -0.259004 6.28628 133 110 82
0.901493 -0.210937 6.31747 149 142 128
0.489225 -0.203811 6.41192 218 204 168
0.862201 -0.172612 6.4963 152 154 139
0.744299 -0.156142 6.35322 94 98 72
0.797063 -0.122212 6.10237 122 122 102
1.01847 -0.0854195 6.25247 136 110 87
0.533716 -0.135427 5.93869 74 56 33
0.527211 -0.130517 5.93937 199 174 148
1.02762 -0.0457102 6.23045 114 74 52
1.06138 -0.024359 6.22422 190 146 128
0.848355 -0.0209946 6.0577 42 23 15
1.00372 -0.0129357 6.05128 210 208 189
0.936959 0.00300655 6.09873 182 162 155
1.01529 -0.000206307 6.02646 107 106 76
1.02268 0.00758752 6.03036 110 108 86
0.952872 0.0338905 6.21453 178 143 132
0.991918 0.0364785 6.15139 229 224 214
0.986632 0.0496114 6.17616 142 112 106
1.03511 0.019197 6.00703 138 136 110
0.522157 0.0546274 6.32646 94 58 38
1.05211 0.0430747 5.98831 136 133 105
0.536995 0.100232 6.35977 72 32 16
0.691517 0.203391 6.24303 170 152 150
0.701529 0.317812 6.3265 108 76 72
0.357711 -0.545369 6.11206 105 106 84
0.413307 -0.530613 6.10113 170 167 132
0.39132 -0.504983 6.09967 120 115 84
0.820411 -0.254614 6.27041 70 78 46
1.13472 -0.208305 6.29619 222 206 180
1.10808 -0.205915 6.30129 221 230 191
0.876451 -0.20654 6.19604 152 146 132
0.517628 -0.220246 6.24213 224 224 189
0.986132 -0.184957 6.475 218 224 185
0.487995 -0.204797 6.43181 226 211 174
0.507422 -0.19768 6.44047 124 90 61
0.908492 -0.171811 6.25125 73 37 20
1.03608 -0.159738 6.37778 207 210 172
0.506845 -0.183396 6.43701 196 178 138
1.03817 -0.134773 6.38726 120 94 64
0.969398 -0.0452844 6.13376 144 136 113
1.0704 -0.022803 6.26185 193 144 126
0.884953 -0.00858169 6.11157 134 86 69
0.912347 0.00498074 6.10688 122 86 62
1.05513 0.0429762 5.99729 212 207 187
0.950599 0.214937 6.33036 106 70 68
0.895365 0.202616 6.25463 116 92 91
0.595803 0.265079 6.38606 73 30 14
0.628039 0.343885 6.4647 94 52 42
0.38297 -0.522247 6.05289 178 168 148
0.882962 -0.523978 6.31616 215 220 178
0.67253 -0.513473 6.28559 220 225 183
0.842249 -0.362502 6.19151 138 142 106
0.703765 -0.281123 6.24922 226 236 195
0.808162 -0.252009 6.19632 68 76 44
0.456998 -0.259933 6.32072 132 115 86
0.63737 -0.249812 6.45925 228 232 190
1.12991 -0.204619 6.36711 222 230 191
1.00717 -0.129806 6.37371 56 30 16
1.06125 -0.107393 6.29159 222 222 200
1.04328 -0.100832 6.3523 74 42 20
1.0686 -0.0906087 6.2933 152 106 84
1.03123 -0.0585936 6.2402 198 159 138
0.972631 -0.0540631 6.17479 42 22 13
0.982627 -0.0429971 6.17479 122 108 88
0.572596 -0.0468022 6.17346 125 108 91
0.983842 0.0309615 6.12377 228 220 211
0.530064 0.16883 6.43748 133 106 82
0.683912 0.18445 6.19489 100 68 63
1.09965 0.162938 5.97465 190 142 115
0.705356 0.326187 6.36894 110 68 62
1.33102 -0.529389 6.10544 128 127 104
1.18709 -0.444226 6.13165 133 131 115
0.545024 -0.3875 6.17951 126 126 106
0.550743 -0.249172 6.35745 180 182 139
0.477459 -0.253833 6.25405 56 49 23
0.485643 -0.233543 6.25877 89 62 42
0.491938 -0.204737 6.41588 206 177 137
1.0254 -0.040102 6.23205 157 116 92
1.01905 -0.0311075 6.22194 192 168 154
0.827535 -0.0444228 6.08853 126 104 86
0.670082 0.157226 5.65727 122 117 104
1.34612 -0.555245 6.09076 129 130 106
1.33892 -0.541805 6.08713 92 94 66
1.32561 -0.528319 6.09474 121 121 98
0.310751 -0.308302 6.3249 76 66 28
0.897666 -0.206714 6.23167 201 201 165
0.68701 -0.207377 6.53653 28 22 10
0.9838 -0.183338 6.41911 161 160 122
0.527037 -0.198265 6.4855 204 202 158
0.523608 -0.169634 6.49331 78 40 14
1.03641 -0.0480884 6.28678 165 120 94
1.06267 -0.0235887 6.22658 164 122 104
0.324121 -0.590639 6.09026 148 146 126
0.442532 -0.510457 6.16312 180 179 138
0.466324 -0.493455 6.17003 153 156 112
0.481047 -0.242544 6.28392 122 102 80
1.02122 -0.146125 6.37687 112 96 68
0.597806 0.27029 6.4281 66 20 8
1.30834 -0.531499 6.13278 88 88 52
0.435624 -0.52027 6.16798 116 120 82
1.7752 -0.569832 6.91474 145 144 100
0.493305 -0.46986 6.19324 159 160 126
0.517819 -0.269219 6.33689 158 160 120
0.510944 -0.220574 6.45079 197 194 160
1.02992 -0.0528191 6.24719 170 122 98
1.0078 0.0570008 6.24843 75 54 46
1.67818 -0.541429 6.721 178 180 136
0.632881 -0.301327 6.19802 132 132 106
0.50719 -0.218984 6.49036 171 167 135
0.489285 -0.206186 6.40674 203 184 143
0.99199 -0.0211265 6.14013 141 114 93
1.29922 -0.526811 6.12122 182 182 142
0.437201 -0.518168 6.17075 110 113 76
0.442952 -0.511352 6.16764 190 190 146
0.463012 -0.495858 6.17724 112 115 80
1.08024 -0.103267 6.4487 158 134 104
0.987103 -0.0422372 6.12292 150 122 106
0.559844 -0.0249467 6.1763 96 57 33
1.00339 0.0586808 6.25436 58 34 26
0.571685 -0.649983 6.33956 126 130 93
0.717301 -0.287328 5.57655 124 132 91
1.00374 -0.199241 6.39391 196 206 164
1.05757 -0.114139 6.30024 178 168 136
0.836296 -0.0905923 6.30447 42 42 26
1.02302 -0.0234727 6.20193 100 71 42
0.558161 0.0300037 6.26537 116 81 66
0.405245 -0.498463 6.11945 86 89 60
0.230893 -0.682411 6.07428 86 76 36
1.306 -0.529571 6.13056 94 94 54
1.24648 -0.503101 6.16174 160 162 122
1.23263 -0.49598 6.15121 169 169 129
0.437814 -0.517747 6.15947 110 112 75
0.467726 -0.489341 6.1428 144 146 104
0.54123 -0.17385 6.30724 194 184 146
1.02777 -0.0477726 6.25077 154 109 86
0.388128 -0.3207 6.328 142 142 94
0.812313 -0.218989 5.9824 114 116 96
0.544295 -0.177067 6.3061 174 162 130
0.323332 -0.594857 6.08903 84 84 60
0.58203 -0.657667 6.42151 126 130 90
0.436551 -0.519508 6.16526 102 104 68
1.31254 -0.438915 6.10005 126 130 85
0.403579 -0.508699 6.11483 125 124 101
0.316081 -0.593154 6.09361 75 76 55
1.03487 -0.134047 6.36772 78 45 22
0.898485 0.0048477 6.10392 162 116 92
0.309951 -0.622191 6.10326 111 116 74
0.46316 -0.496815 6.18149 132 133 92
1.06372 -0.391499 5.9494 170 172 136
1.05108 -0.106586 6.26292 175 158 134
0.732202 -0.325904 7.56598 114 114 78
1.10563 -0.225083 6.37717 153 155 116
0.892897 0.00900248 6.10654 171 128 106
0.388536 -0.539403 6.13236 114 114 93
0.564666 -0.159227 6.4097 144 133 108
0.226745 -0.69311 6.08714 118 110 67
0.324442 -0.583666 6.08964 82 78 56
0.694682 -0.411548 6.27538 143 150 116
0.696327 -0.40876 6.27781 148 154 120
1.09878 -0.386366 6.16267 119 120 97
1.01851 0.027549 6.28652 122 104 88
0.470716 -0.493696 6.1049 106 108 70
0.934986 -0.264976 6.22686 103 106 86
0.935058 -0.271347 6.23941 102 106 85
1.04228 -0.160275 6.37545 174 168 145
1.01126 -0.168659 6.52385 103 88 62
0.482686 -0.0539169 6.25285 124 115 88
0.337286 -0.583549 6.12637 110 107 92
1.19999 -0.484874 6.16257 127 128 86
1.07078 -0.722902 6.36629 120 130 94
0.352928 -0.557601 6.07728 94 92 69
1.27541 -0.502448 6.12375 171 170 130
0.483201 -0.222022 6.27343 108 87 57
0.89756 -0.181374 5.73845 115 92 64
0.470278 -0.103048 6.37624 188 178 162
0.854884 -0.0287254 6.34802 32 29 16
0.533067 0.0641133 6.81494 106 63 38
0.88502 -0.149909 5.76006 190 180 146
1.30274 -0.51337 6.10909 66 64 30
0.950808 -0.0275307 6.34881 106 88 68
1.11552 -0.131713 6.25587 132 114 88
0.485248 -0.227249 6.26448 115 90 72
0.47651 -0.207871 6.26103 140 109 76
1.03639 -0.137292 6.38027 96 76 54
0.48518 -0.108516 6.23879 152 130 88
0.780015 -0.139656 5.98108 40 34 12
0.768233 -0.105222 5.92697 142 150 125
0.724973 -0.184311 6.19278 145 144 119
0.779259 -0.138296 5.96833 46 36 15
1.11451 -0.152438 6.2782 167 132 120
0.781867 -0.14353 5.96046 35 28 10
1.30382 -0.172662 8.9694 90 76 51
1.30674 -0.174301 8.98101 91 76 52
0.56468 -0.153399 6.45815 85 67 46
1.02973 -0.0471117 6.23393 104 68 44
0.585978 -0.0445338 6.18738 152 138 137
0.812834 0.0101189 6.0935 64 38 30
0.601817 0.217024 6.40077 160 128 119
1.1023 0.166765 5.97821 120 76 48
1.0919 0.171023 5.97337 93 63 43
0.832151 0.222121 6.21876 151 112 112
0.873534 0.316666 6.32219 154 126 125
0.826519 0.370646 6.35184 84 53 48
0.844614 0.379107 6.36764 117 86 83
0.793596 0.383306 6.34567 114 76 66
1.31123 -0.531294 6.12719 86 86 48
1.30733 -0.529923 6.13674 96 95 56
0.607151 -0.276822 6.18131 150 150 122
1.13028 -0.255972 6.37283 192 190 154
1.05746 -0.23489 6.37071 193 196 158
0.535601 -0.259343 6.22805 154 156 114
1.04491 -0.116945 6.39005 146 126 108
1.08375 -0.0785956 6.26656 143 140 112
0.484562 -0.102796 5.8677 188 188 156
1.04983 -0.0203352 6.20731 164 128 112
0.727558 -0.0137849 5.83623 112 122 92
0.75867 -0.00269838 5.86104 132 93 72
0.870217 0.32311 6.33284 141 117 114
0.550395 -0.41557 6.21651 154 153 110
0.507335 -0.391612 6.14324 149 148 122
0.600996 -0.371076 6.25108 161 164 122
1.13524 -0.198537 6.28769 150 114 86
1.09414 -0.0765894 6.30652 147 145 114
0.73941 -0.0742187 5.89617 114 125 85
0.978898 -0.0408878 6.15958 90 81 62
0.837989 -0.0412781 6.0915 67 53 40
0.918588 0.0611936 6.15362 150 130 126
0.599707 0.289314 6.4615 52 17 10
0.323676 -0.59445 6.09398 148 145 126
0.561452 -0.685336 6.443 140 143 106
1.13215 -0.261855 6.37644 127 125 87
1.09771 -0.261399 6.38884 174 180 143
1.1223 -0.246339 6.36812 88 64 32
1.13046 -0.195605 6.26895 148 113 86
0.482705 -0.10199 5.86632 190 188 162
0.950445 -0.055348 6.1789 96 91 75
0.575939 -0.0446179 6.2004 163 152 158
0.582066 -0.0407071 6.18181 65 46 34
0.706036 -0.00545009 5.84097 178 145 120
0.827163 0.368871 6.34173 101 70 64
0.848193 0.384353 6.36494 128 95 92
1.30094 -0.514566 6.12392 86 84 48
0.585627 -0.612779 6.38206 148 151 120
1.0535 -0.0933542 6.31722 110 82 52
0.477649 -0.101412 5.87287 192 192 166
0.474369 -0.0969268 5.87052 160 158 130
0.580337 -0.0471327 6.16415 198 189 199
0.84525 0.316652 6.3074 141 104 106
1.0928 -0.0734937 6.3495 208 171 162
1.0503 -0.0233112 6.21426 128 92 76
0.701672 0.0168355 5.81372 139 107 90
0.313278 -0.309299 6.32164 98 89 52
1.13254 -0.261975 6.36754 158 161 123
0.833491 -0.0388294 6.09827 120 100 82
0.588665 -0.0369455 6.19692 117 105 104
0.896192 0.196214 6.23414 153 130 129
0.69886 0.257497 6.28934 150 118 112
0.846707 0.386649 6.36136 118 88 86
0.770772 -0.31834 6.24672 203 206 156
1.08201 0.169017 5.97477 134 116 106
0.843517 0.220399 6.22515 151 108 106
0.55195 -0.0885602 6.30085 136 128 108
0.584639 -0.197997 5.85419 190 186 146
0.761249 -0.0743595 5.89657 138 144 122
0.72634 -0.058662 5.88052 107 114 78
0.830959 0.368142 6.33752 138 106 103
0.652871 -0.21619 6.64866 132 119 89
0.595162 -0.158489 6.22798 104 92 66
0.624686 0.0068594 6.13222 117 71 46
0.870817 0.317562 6.31488 132 107 104
0.913897 0.173318 6.25082 66 35 33
0.363304 -0.569903 6.1144 120 120 98
0.812046 0.0942415 6.13917 100 72 66
0.432552 -0.496038 6.14022 112 113 91
0.465893 -0.494038 6.16857 130 128 85
0.767874 -0.0945392 5.9134 48 48 34
1.1106 -0.218733 6.33907 188 192 152
0.744552 -0.0755964 5.76948 37 30 17
1.10883 -0.246842 7.0612 164 144 122
0.878084 -0.292834 6.3542 182 190 155
1.05715 -0.0288905 6.26304 117 72 52
0.870219 0.361132 6.36594 96 65 66
0.669668 -0.194343 6.38208 58 44 24
0.950554 -0.172645 6.40396 47 26 10
1.01826 -0.1452 6.41965 94 77 57
0.762517 0.321643 6.20192 150 112 105
0.315804 -0.593618 6.09481 76 74 48
0.806183 0.40735 6.45978 87 48 39
0.77626 0.36825 6.34807 142 101 92
0.821463 0.438199 6.62258 88 51 46
0.749296 0.447792 6.5422 96 75 62
0.632588 -0.251653 6.33581 138 137 101
0.56868 -0.171926 6.31495 114 102 66
0.263521 -0.289178 6.34296 122 94 52
0.933098 0.329212 6.5008 83 45 42
0.264006 -0.29006 6.34322 122 96 48
0.593107 -0.22398 6.15375 146 142 103
0.63159 -0.226746 6.12712 176 172 127
0.450261 -0.0694647 6.18576 128 126 94
0.894116 0.0102527 6.64141 82 58 49
0.535484 -0.0147025 6.26817 164 130 106
0.550673 -0.0985844 6.20025 128 129 102
0.815675 -0.123549 6.09154 41 24 8
1.27115 -0.52509 6.20959 141 142 101
0.148921 -0.316733 12.0005 132 94 62
0.761951 -0.122499 7.78056 111 87 68
0.888196 -0.142854 7.52576 132 123 92
0.634871 -0.548297 6.63531 144 150 106
0.935372 0.000631976 6.09431 86 73 60
0.896799 0.17183 6.23053 83 54 49
0.735207 0.406687 6.44809 118 84 68
1.08057 -0.741853 6.41084 97 105 66
0.52226 -0.73351 6.47023 122 123 81
1.23035 -0.496093 6.14247 167 168 126
1.11413 -0.428716 5.89745 173 176 130
0.808337 -0.206148 5.00418 106 110 84
0.601677 -0.368022 6.24214 118 120 79
1.15107 -0.318504 6.34825 81 74 32
1.16474 -0.320123 6.3768 155 151 111
1.15931 -0.312306 6.3575 79 68 34
0.646758 -0.316117 6.24677 96 99 66
1.12174 -0.245455 6.35634 60 39 8
0.91135 -0.234671 6.21187 112 115 102
1.11748 -0.226214 6.40473 138 133 98
0.974712 -0.233536 6.47221 65 64 32
1.09595 -0.221176 6.32863 154 157 119
0.784362 -0.214099 6.06634 144 147 118
0.669144 -0.223922 6.18683 120 120 94
0.588045 -0.223641 6.36008 139 146 100
1.0118 -0.202046 6.39073 154 163 124
0.480257 -0.22765 6.32781 120 98 71
1.00672 -0.199738 6.39134 94 104 62
0.902277 -0.199362 6.43597 124 113 96
0.510279 -0.185277 6.45743 171 156 120
0.84497 -0.163056 6.33547 56 48 42
0.809528 -0.135536 6.31326 152 152 148
0.835538 -0.132733 6.314 68 61 56
0.637914 -0.128136 6.42115 88 94 78
1.07027 -0.104845 6.40133 152 127 94
0.826924 -0.117095 6.31947 90 88 80
0.808567 -0.110913 6.3165 126 126 114
0.821914 -0.0920029 6.35432 32 29 20
1.16921 -0.0601612 6.8539 86 73 46
1.05263 -0.0841792 6.25891 87 48 20
1.04879 -0.0814315 6.27799 186 156 136
0.714002 -0.0926913 5.93852 24 22 6
0.513097 -0.0927203 6.17517 134 100 84
0.712631 -0.0902404 5.92724 117 111 92
0.760414 -0.0738068 5.89839 122 130 106
0.567585 -0.0627227 6.19767 27 12 4
0.5725 -0.0610094 6.21228 156 148 138
0.573658 -0.0557546 6.19675 165 154 146
0.824041 -0.0507926 6.11317 86 68 54
1.06165 -0.025656 6.25857 176 145 130
1.05511 -0.0189802 6.23746 98 65 49
1.05415 -0.0151124 6.23386 95 62 46
1.01581 -0.0102347 6.15496 140 119 104
0.839231 -0.0285196 6.04464 96 76 70
0.756306 -0.0401183 5.86495 84 90 70
0.707834 -0.0302915 5.85081 46 17 1
0.708023 -0.024492 5.87067 132 111 80
0.757927 -0.00462683 5.85852 166 126 100
0.812653 0.0296941 6.11628 71 34 20
0.942159 0.0301317 6.00112 44 16 14
0.920834 0.0591573 6.14761 80 58 55
0.99091 0.0813265 6.223 44 19 15
0.750216 0.0304804 5.82398 84 88 68
0.956444 0.216576 6.32109 52 22 16
0.94405 0.263238 6.33886 91 56 51
0.922221 0.324393 6.40036 86 54 52
0.803641 0.294341 6.28286 102 66 61
0.798362 0.30753 6.2915 108 78 72
0.66054 0.348789 6.4035 50 28 12
0.659091 0.32852 6.32058 110 94 73
0.793885 0.354538 6.32283 121 88 83
0.799096 0.364605 6.33276 70 30 24
0.826345 0.365892 6.336 116 80 76
0.828759 0.371269 6.34756 64 30 26
0.662209 0.171848 5.69839 70 62 45
1.062 -0.726238 6.37796 140 144 98
0.333586 -0.604477 6.11879 112 113 74
0.435898 -0.51919 6.16682 86 90 52
1.04699 -0.352744 6.16424 88 94 77
0.602402 -0.367645 6.23427 121 124 81
1.17421 -0.321667 6.40996 134 132 92
0.652914 -0.322204 6.26388 112 116 70
0.974403 -0.289754 6.18876 92 98 84
0.977067 -0.291265 6.22628 100 104 90
0.784379 -0.216046 6.09229 128 131 101
0.986413 -0.225825 6.50969 76 70 38
1.13082 -0.189878 6.2683 122 84 59
0.477164 -0.224538 6.36278 112 82 56
0.928756 -0.2016 6.51412 166 159 124
1.02611 -0.149894 6.41969 94 80 48
0.572725 -0.164854 6.39896 152 142 120
0.813754 -0.149123 6.28377 111 114 106
0.519283 -0.149466 6.46149 180 167 150
0.835454 -0.132978 6.31939 68 61 56
1.04646 -0.11413 6.38843 63 37 18
1.07226 -0.109184 6.41628 65 36 7
1.03837 -0.0727456 6.29842 82 60 44
0.47622 -0.0963169 5.86716 108 106 70
0.759741 -0.0750994 5.88357 110 120 94
0.726227 -0.058842 5.89101 89 96 58
0.843479 -0.0124664 6.09162 68 46 42
0.707771 -0.0317567 5.86231 47 20 4
0.513363 0.0172074 6.29707 85 58 34
0.760216 -0.0148327 5.90163 148 110 88
0.519919 0.024261 6.28997 69 40 17
1.03816 0.0175751 6.02921 164 164 146
0.52377 0.0463381 6.27898 126 104 80
1.07509 0.0741899 5.98537 128 125 108
0.808212 0.158996 6.18153 128 101 96
0.888755 0.198736 6.24012 44 17 12
0.833063 0.225621 6.23465 118 79 76
0.942996 0.26572 6.35818 126 92 90
0.803785 0.238967 6.24389 124 101 100
0.793767 0.346956 6.30174 123 89 84
0.82092 0.373393 6.36022 102 66 64
0.544299 -0.706667 6.44081 127 126 80
0.999641 -0.311585 6.16509 82 88 72
0.650757 -0.325121 6.28743 104 109 63
0.971897 -0.286618 6.17312 100 105 92
1.09843 -0.261957 6.38713 144 150 113
1.11895 -0.243361 6.3441 54 34 6
1.02687 -0.218012 6.34923 106 112 71
0.926981 -0.210923 6.38777 148 146 106
0.910863 -0.200678 6.48582 90 80 62
0.930496 -0.200261 6.55196 166 165 125
0.938377 -0.182043 6.5268 45 18 6
0.571029 -0.153961 6.41769 30 18 6
0.808659 -0.142049 6.29128 156 156 154
0.81458 -0.133658 6.27358 116 118 106
0.548044 -0.119971 7.15884 86 90 74
0.806769 -0.109789 6.29472 126 126 116
1.01952 -0.0918051 6.14064 52 28 10
1.04015 -0.0883797 6.17824 82 37 11
0.829444 -0.0899384 6.29576 12 8 2
0.714129 -0.0837056 5.91504 22 20 4
0.979817 -0.0417962 6.16188 23 13 5
0.571551 -0.0506786 6.19707 34 20 10
0.995372 -0.0239823 6.16483 106 83 62
0.765735 -0.0451452 5.85111 64 52 40
0.930074 0.000365244 6.10186 34 20 7
0.523092 0.0319233 6.32082 126 90 68
0.812652 0.0291365 6.10267 65 28 13
0.757684 0.00488544 5.8716 161 116 92
0.915263 0.0658433 6.14605 26 8 6
0.721148 0.0851301 5.7952 53 19 8
0.890397 0.204775 6.26443 48 22 17
0.946557 0.268647 6.37197 128 94 91
0.803259 0.245716 6.23765 118 93 91
0.923761 0.323694 6.39732 83 51 50
0.616398 0.334544 6.45274 112 73 58
0.798729 0.300827 6.28124 118 94 87
0.618471 0.345079 6.45908 75 34 18
0.658852 0.328219 6.31992 113 96 75
0.827358 0.372839 6.35632 65 28 24
0.778542 0.363662 6.33435 122 74 60
0.335559 -0.603063 6.11314 113 114 72
1.16481 -0.325102 6.4001 76 70 28
0.655048 -0.320679 6.26139 128 132 84
0.607685 -0.277855 6.16978 104 105 78
0.91045 -0.235594 6.20127 106 108 96
0.973941 -0.22712 6.42982 101 96 64
1.11499 -0.210056 6.31293 158 151 116
0.778484 -0.190565 6.13282 64 68 49
0.496073 -0.204614 6.22062 162 159 116
0.988431 -0.185397 6.45376 162 171 132
0.91461 -0.185124 6.47066 32 14 2
1.09543 -0.146887 6.26678 170 132 116
0.575052 -0.164074 6.38223 146 137 112
0.814356 -0.133081 6.28498 119 120 110
1.06411 -0.0693899 6.25379 126 79 62
1.03534 -0.0642259 6.28149 41 19 6
0.528419 -0.0804547 6.27032 83 68 53
0.568395 -0.058525 6.24594 168 164 153
0.837133 -0.0116183 6.05816 106 73 66
1.06069 0.0288871 6.24212 47 50 26
0.705405 -0.0220441 5.87864 158 129 99
0.627601 0.0040099 6.11418 105 60 32
0.820259 0.019995 6.0964 176 148 146
1.04011 0.0212826 6.02278 76 78 56
0.746027 -0.00743656 5.83651 106 112 90
0.943326 0.0443473 6.07104 54 23 20
0.985495 0.113826 6.26028 114 88 84
0.810285 0.124029 6.15829 120 96 90
0.808344 0.159489 6.17459 124 102 96
0.885994 0.197355 6.22721 50 23 18
0.945178 0.261851 6.35562 120 86 83
0.806565 0.299394 6.29799 75 24 20
0.664773 0.324549 6.31713 47 18 7
0.801317 0.359819 6.32421 72 28 23
0.841372 0.375971 6.37033 130 100 96
0.77611 0.362842 6.33023 122 74 59
0.791286 0.382673 6.34026 100 63 50
0.56201 -0.688887 6.4458 124 128 88
1.29071 -0.505621 6.08909 60 59 27
0.409223 -0.541617 6.14918 126 124 77
1.01921 -0.33149 6.17488 74 80 56
0.998646 -0.312461 6.18696 89 96 78
0.770402 -0.322827 6.26102 168 174 122
0.710046 -0.275574 6.24263 166 169 126
0.973564 -0.203793 6.54339 164 172 130
0.910554 -0.185902 6.4744 29 12 4
1.11928 -0.159096 6.27397 150 110 96
1.10408 -0.156679 6.24182 186 148 138
0.595766 -0.15507 6.34523 18 12 2
0.803252 -0.134909 6.29008 159 157 158
0.820452 -0.0970149 6.35646 38 36 26
0.782575 -0.0977362 6.33855 118 118 103
0.52594 -0.0882394 6.44634 108 103 78
0.477428 -0.102176 5.87685 155 149 119
0.51946 7.20248e-05 6.28369 66 30 8
0.682768 -0.0162059 6.03818 66 32 22
0.819669 0.0186171 6.09423 174 146 144
0.690402 -0.0474232 5.48825 96 62 46
0.925393 0.0649552 6.1574 17 9 6
0.69679 0.0433783 5.82382 29 6 2
0.810344 0.124268 6.1619 120 96 90
0.892315 0.203069 6.23838 98 79 78
1.09508 0.176921 5.9891 71 45 22
0.629124 0.337119 6.40082 118 82 56
0.706375 0.31712 6.31883 126 100 98
0.628295 0.340644 6.39575 140 107 86
0.355274 -0.579414 6.11945 84 83 62
0.411874 -0.539685 6.14377 114 112 68
1.1911 -0.327392 6.51012 81 74 34
1.09577 -0.262746 6.39109 166 174 130
0.645554 -0.214824 6.28964 152 152 110
0.988042 -0.194777 6.46357 164 178 136
0.902437 -0.187208 6.35564 29 12 4
0.52006 -0.153166 6.44824 136 118 103
0.626569 -0.130563 5.99625 83 86 66
0.821453 -0.0946396 6.35893 38 35 26
0.830586 -0.0917551 6.30558 14 8 6
0.543493 -0.0955574 6.23791 86 80 63
0.5247 -0.0956989 6.09752 132 93 78
0.560534 -0.0655783 6.22811 42 25 17
0.569102 -0.0540594 6.20978 147 138 128
0.822635 -0.0504997 6.09864 75 56 42
0.922 0.0168182 6.08548 117 86 74
0.507157 0.114476 6.44838 130 109 82
0.787604 -0.0718172 5.17409 78 54 38
0.807477 0.122744 6.14611 74 44 38
0.71351 0.0801445 5.77637 109 113 95
1.10041 0.185319 6.0172 64 37 16
0.797449 0.300619 6.28444 116 88 82
0.668634 0.31791 6.30144 49 19 10
0.778753 0.360012 6.33905 74 28 14
0.780464 -0.18567 5.00984 92 90 68
0.70853 -0.27442 6.21167 176 180 132
0.97702 -0.206136 6.57263 166 174 132
0.921203 -0.200537 6.5312 138 131 98
0.498667 -0.202728 6.21759 166 167 119
0.489472 -0.199549 6.41464 166 162 114
1.03724 -0.156444 6.355 164 171 129
0.567025 -0.151838 6.20135 92 74 48
0.480429 -0.137346 6.1631 156 158 102
0.754562 -0.0888958 5.52876 20 14 6
0.879891 0.00283722 6.05245 162 122 103
0.680205 -0.0137722 5.82821 136 84 58
0.506305 0.0636875 6.38683 94 70 46
0.747922 0.00351905 5.85161 37 46 28
0.690768 0.0136533 5.92878 41 12 5
0.808957 0.089678 6.13571 54 25 20
0.923708 0.155434 6.20923 60 32 27
0.984375 0.289237 6.47916 90 56 47
0.702933 0.317768 6.32416 99 65 62
0.770721 0.369218 6.33275 150 104 90
0.846792 0.376619 6.35942 108 76 70
0.466282 -0.493056 6.15647 124 128 82
1.0942 -0.264889 6.38328 164 175 128
0.637182 -0.228483 6.43625 174 178 132
1.137 -0.195145 6.30728 123 86 60
0.493174 -0.200619 6.23797 164 167 116
1.0777 -0.141781 6.19081 140 99 80
0.785183 -0.113404 6.36856 62 68 54
0.834506 -0.021095 6.04756 78 40 28
0.933951 0.0303759 6.4111 70 44 30
0.822172 0.0156161 6.08434 176 148 145
0.632247 0.0236984 6.14806 94 44 23
0.790856 0.0270648 6.07071 78 32 12
0.522965 0.185995 6.47831 122 99 76
1.09102 0.171142 5.97042 64 36 15
0.704311 0.316495 6.31897 102 67 64
0.805533 0.354533 6.28697 134 92 84
0.310702 -0.624408 6.09787 154 158 108
0.712402 -0.35845 6.06563 124 128 83
0.971945 -0.287782 6.19445 101 104 92
1.03846 -0.153488 5.99336 159 124 110
0.679232 -0.130929 6.08149 89 92 78
0.568094 -0.100412 6.2943 20 10 0
0.896017 0.0219536 6.09334 132 89 74
1.05593 0.0411485 6.00012 150 150 133
1.05993 0.0446519 6.00596 108 106 90
0.872392 0.322299 6.32423 125 99 98
0.549769 -0.416343 6.22377 124 126 80
0.939837 -0.259631 6.20147 93 97 84
0.679774 -0.131404 6.0739 85 88 74
0.794812 -0.0832623 6.57376 48 46 35
1.04348 -0.0809112 6.25238 129 100 84
0.895294 0.021404 6.09023 146 104 88
1.05915 0.0441095 6.00591 116 114 97
0.953308 0.265427 6.367 56 21 14
0.8764 0.316863 6.3113 98 68 67
0.359364 0.14559 5.71163 110 98 82
0.570002 -0.672777 6.42386 161 164 116
0.689634 -0.355495 5.57438 110 115 69
0.549406 -0.416278 6.2209 111 114 66
0.611148 -0.218109 6.52588 170 170 126
0.872454 -0.190479 6.26263 36 17 10
0.750432 -0.123543 5.50581 132 122 98
1.07494 0.0686832 5.99222 143 139 120
0.521609 -0.442425 6.20629 106 105 66
1.04586 -0.352066 6.1715 81 88 68
0.718298 -0.239554 6.15869 79 80 32
0.954789 0.0140631 6.0762 164 146 144
0.821881 -0.00554334 5.42269 60 32 24
0.801889 0.246191 6.23626 120 95 92
0.794466 0.252906 6.24624 59 16 7
0.363227 0.138602 5.70708 64 60 33
0.547205 -0.415667 6.21947 78 84 48
0.784199 -0.132495 6.26035 133 132 124
0.791973 0.254089 6.25331 58 16 6
0.859309 0.335266 6.38795 112 82 81
0.798423 0.37664 6.36353 108 65 56
0.336475 -0.575063 6.10213 58 58 30
0.821103 0.0186367 6.08453 176 147 146
0.687577 0.0959646 6.13823 70 39 28
1.09912 0.172992 5.98214 94 65 46
0.589872 -0.160709 6.26057 36 16 4
1.05939 -0.127391 6.2701 126 112 78
0.70905 -0.109333 5.9404 22 18 12
0.801954 0.238001 6.23794 124 100 94
1.02888 0.156189 6.46282 124 114 98
0.799132 0.293935 6.27526 126 96 94
1.07279 -0.722825 6.36744 92 104 58
0.797942 -0.0906493 6.42585 51 49 36
0.372654 -0.538807 6.11114 108 102 80
0.38457 -0.562997 6.13459 107 104 58
0.95494 0.26536 6.36808 44 14 7
1.03568 -0.0127745 6.33559 88 62 46
0.756568 -0.0432696 5.86909 117 121 95
0.898002 -0.204911 6.31131 172 156 120
0.844851 0.0901595 6.3641 38 18 16
0.410536 -0.540437 6.15116 84 81 46
0.782558 -0.190643 6.05441 56 61 40
0.917906 0.231622 6.42657 56 22 16
0.272549 -0.294128 6.35376 152 140 87
0.784084 -0.101049 6.34241 130 134 120
0.78474 0.0465209 6.73675 108 97 82
0.781032 0.0528865 6.5251 144 114 92
0.619468 0.408869 6.45846 92 76 60
0.37958 -0.563389 6.13302 96 96 62
0.972524 -0.340182 5.57123 80 78 52
0.844746 -0.263939 6.00671 150 148 116
0.865697 0.1382 5.99205 124 100 98
1.16181 -0.314024 6.34767 96 96 56
0.785844 -0.00979411 6.15905 30 8 4
0.667412 0.192944 6.41856 52 15 6
0.638828 -0.1318 6.32311 86 88 74
0.778785 -0.00707217 6.22494 108 77 65
0.756873 0.00820558 5.86466 158 118 90
1.34675 -0.55438 6.09535 95 96 70
0.72185 -0.408114 6.52041 144 144 100
1.15269 -0.308167 6.31814 92 80 44
0.811037 -0.225323 5.87213 98 102 67
0.757893 -0.0468601 5.86695 82 90 66
0.781312 -0.00153712 6.28912 68 42 36
1.16235 -0.312941 6.35856 108 106 68
0.645077 0.230864 7.76928 30 6 2
0.3184 -0.593613 6.08692 56 61 40
1.01777 -0.14877 6.3747 78 64 43
0.815675 -0.0912929 6.29347 83 85 72
1.09703 0.175793 6.0203 135 112 99
0.548779 -0.105169 6.25643 112 110 84
0.782641 -0.197559 6.14282 52 59 34
0.56113 -0.0827836 6.29594 118 104 83
0.779348 -0.191512 6.12305 49 56 28
0.557076 -0.084036 6.30134 106 97 77
0.884482 0.300555 7.35941 112 90 86
0.997442 0.290173 6.6463 60 32 24
0.583029 -0.654077 6.42013 116 121 76
0.629026 -0.345238 6.24123 106 112 71
1.00282 -0.31307 6.18115 76 84 66
0.634181 -0.300619 6.21969 84 88 58
0.611108 -0.270322 6.17568 57 60 28
0.982002 -0.221297 6.36148 64 64 29
0.947904 -0.214538 6.53144 149 146 108
0.609715 -0.209345 6.33963 148 150 110
0.914217 -0.202485 6.55253 132 120 104
0.926151 -0.199947 6.52282 154 148 114
0.950184 -0.192536 6.54903 122 100 74
1.04872 -0.153373 6.48541 124 103 74
1.04248 -0.111098 6.37667 35 14 2
0.920703 0.00440224 6.11988 70 42 23
0.816694 0.0591351 6.11487 86 53 48
0.980906 0.120677 6.26974 44 12 10
0.907936 0.127008 6.19004 121 99 97
0.584655 -0.654147 6.41502 112 118 75
1.0211 -0.331218 6.17849 91 98 78
0.689336 -0.293227 6.27901 108 114 70
0.30794 -0.3088 6.33079 54 44 10
0.975537 -0.234646 6.47185 70 68 36
0.611375 -0.209409 6.333 148 150 110
1.02726 -0.139697 6.37802 61 32 14
0.946927 0.00585653 6.08076 100 79 66
0.812974 0.0910004 6.137 110 90 85
0.765944 -0.336234 6.26993 133 140 91
0.315557 -0.308231 6.31665 47 36 3
0.799314 -0.228809 6.11429 86 86 44
0.987734 -0.228384 6.48117 71 62 33
0.947508 -0.218977 6.55184 144 148 106
0.496065 -0.206166 6.39897 151 129 88
1.04678 -0.127967 6.38864 86 56 36
0.82535 -0.0517084 6.11452 84 68 56
0.924101 0.0204052 6.11418 100 64 49
0.78738 0.0285226 6.08032 77 30 9
0.371066 -0.541435 6.11136 93 92 66
1.07172 -0.369997 6.13875 73 80 57
1.02168 -0.332061 6.1702 82 89 68
1.00025 -0.311397 6.1794 82 90 71
0.912203 -0.235751 6.20601 96 100 88
0.796953 -0.228273 6.12412 80 79 37
1.10951 -0.224076 6.36376 102 98 62
0.492634 -0.20383 6.22616 148 136 96
0.948212 -0.190569 6.52913 124 100 73
0.924748 -0.184795 6.45575 30 12 6
0.508863 -0.182325 6.45993 160 150 110
1.01206 -0.0315687 6.14117 98 71 60
1.0241 -0.0244435 6.17956 71 38 13
1.02091 -0.331505 6.17773 68 74 54
0.971987 -0.289908 6.2008 70 74 61
0.482642 -0.220695 6.28795 126 113 76
0.947501 -0.19102 6.5251 110 85 60
1.07207 -0.131728 6.34346 152 162 119
0.630654 -0.214429 6.40596 156 158 113
1.07227 -0.13091 6.33454 151 160 117
0.92056 0.099062 6.18555 30 12 8
0.809119 0.123572 6.15583 86 59 52
0.916865 -0.557376 6.27137 145 149 105
0.533647 -0.209836 6.23101 150 137 92
0.940231 0.00454769 6.08911 114 93 80
1.12916 -0.230809 6.30425 133 98 68
0.749478 -0.0378669 5.86583 81 92 62
0.812221 0.0873785 6.13663 82 56 51
0.656403 -0.546573 6.38609 108 118 70
0.574297 -0.393202 6.23944 95 96 60
0.268324 -0.285754 6.34813 109 89 38
1.04845 -0.229867 6.39453 118 128 90
0.523926 -0.442349 6.20503 112 115 70
0.576271 -0.391818 6.23153 110 112 72
0.750682 0.00301549 6.32467 65 36 28
0.577873 -0.391346 6.22763 104 106 68
0.56996 -0.194306 6.21727 152 144 101
0.544289 -0.607569 6.43224 103 109 60
0.811478 0.0896122 6.13643 93 68 64
0.732582 0.00915897 5.946 128 107 82
0.935041 -0.18541 5.1558 78 60 16
0.4666 -0.494115 6.17354 108 107 61
0.694045 -0.192364 6.10236 36 27 6
0.0305167 -0.255023 9.00388 100 78 50
0.932747 -0.212197 6.27644 112 107 75
0.931356 -0.210264 6.26499 109 104 70
0.656155 0.0139212 6.23701 170 124 96
0.935473 -0.0308832 5.57329 100 88 70
0.944528 -0.0673736 5.43991 106 77 61
0.756569 0.00933159 5.85547 155 128 106
1.16196 -0.306466 6.35079 95 97 59
0.591263 0.00924015 6.94533 62 49 34
0.582575 -0.656478 6.40129 116 124 82
1.12024 -0.16086 6.26517 142 103 88
0.91059 -0.00807368 5.64054 82 44 27
1.06375 -0.0224654 6.28988 131 98 80
0.729404 0.0324782 6.09244 130 96 71
0.546451 -0.207243 6.2871 108 102 70
0.536839 -0.193412 6.33743 58 38 12
0.911962 -0.516461 6.15434 152 157 108
0.750026 -0.0171122 6.09255 22 8 2
1.05463 0.0212095 6.30873 138 126 113
1.0003 0.0562394 6.23819 52 36 26
0.600321 -0.538077 6.13032 132 133 87
0.589955 -0.556871 6.16217 138 138 90
0.712973 -0.249837 6.16478 49 54 18
0.581134 -0.184273 6.15505 123 116 78
0.6783 -0.0344112 6.06674 49 26 10
0.608715 -0.567009 6.3647 92 102 67
1.06964 -0.386129 5.69769 143 146 98
0.429655 -0.496412 6.14705 70 72 51
0.461835 -0.496072 6.18491 83 85 44
1.12465 -0.413309 6.14763 87 94 69
0.690843 -0.410874 6.29871 108 116 82
0.604544 -0.327654 6.20938 86 88 64
0.997504 -0.310709 6.18849 86 92 76
1.05638 -0.23414 6.39051 131 142 101
1.0343 -0.219448 6.39378 140 154 114
0.480915 -0.225711 6.28837 134 119 82
0.484421 -0.203451 6.23111 78 56 30
1.08759 -0.0751948 6.32844 89 98 59
1.0417 -0.0780306 6.27235 118 88 69
1.06443 -0.0727798 6.28264 129 82 68
1.05177 -0.0432684 6.25585 80 35 8
0.815555 -0.0474411 6.14263 62 42 28
1.01199 -0.0326182 6.20847 134 110 97
1.00301 -0.0305017 6.20967 56 28 16
0.752385 -0.0358675 5.8659 110 118 92
1.03081 -0.00449493 6.19688 108 80 72
0.923343 -0.000269847 6.12985 118 99 88
0.75718 -0.0196291 5.91369 131 97 70
0.958397 0.0148223 6.06458 144 122 116
0.750782 0.00987353 5.84926 63 66 46
0.72306 0.0590396 6.11877 160 114 103
0.886792 0.116174 6.16067 116 83 77
0.977151 0.158182 6.33007 66 40 38
0.939494 0.265322 6.36324 58 27 25
0.951796 0.267091 6.3556 46 16 10
0.955033 0.327867 6.47815 81 44 37
0.928175 0.32001 6.39732 129 99 97
0.938567 0.334712 6.45115 94 67 64
0.799676 0.293736 6.27343 125 95 92
0.905164 0.346365 6.38222 122 88 84
0.566273 -0.671989 6.43502 130 136 90
0.886865 -0.647387 6.48095 96 102 60
0.822896 -0.420822 6.1215 100 106 58
0.652303 -0.321368 6.27104 92 99 46
0.288898 -0.286493 6.31113 123 106 54
0.760253 -0.133175 6.26456 63 61 40
0.818438 -0.0461744 6.13966 39 18 6
1.01791 -0.0278586 6.20749 110 88 72
0.75268 -0.0382931 5.86681 111 118 90
1.03373 0.00320066 6.24306 158 130 120
1.02243 0.0045453 6.16854 118 89 80
0.751672 -0.0149813 5.92855 162 119 89
0.748628 -0.0155209 5.8438 102 110 88
0.750518 0.0096475 5.84923 60 62 43
0.724715 0.0583677 6.11312 160 114 103
0.815836 0.0585898 6.11583 88 51 45
0.736131 0.0176011 5.82001 104 112 92
0.71176 0.0964923 6.1452 102 56 48
0.976605 0.153985 6.30129 98 68 66
0.973951 0.198069 6.31568 105 74 70
0.965354 0.255305 6.37068 48 14 5
0.943218 0.267943 6.36899 123 96 93
0.543737 -0.389225 6.18053 75 78 54
0.611773 -0.32346 6.20372 90 90 65
0.585626 -0.226789 6.35155 132 134 84
0.480013 -0.225074 6.29277 140 124 84
1.0253 -0.0299697 6.21054 60 26 6
0.746727 -0.0134063 5.93988 148 110 80
0.816216 0.0583517 6.11495 92 57 52
0.710687 0.096379 6.14897 94 48 40
0.961262 0.209161 6.32476 115 90 88
1.06932 0.173688 6.03442 100 82 72
0.946947 0.261627 6.34395 121 93 91
0.951686 0.263414 6.3606 42 14 8
0.929137 0.318253 6.3838 124 96 94
0.874175 0.313499 6.32035 126 94 95
0.78985 0.312354 6.2868 53 18 12
0.439469 -0.801298 6.54282 91 94 37
1.30984 -0.530697 6.12977 69 74 34
1.14405 -0.342661 5.67518 99 104 61
0.79472 -0.227918 6.11017 59 64 18
0.478141 -0.233902 6.27339 68 50 32
0.489716 -0.204313 6.41389 148 131 88
1.06086 -0.120602 6.24574 92 57 27
1.03973 -0.0737848 6.27879 64 34 16
1.02372 -0.0255815 6.15587 57 30 13
0.771141 -0.0181874 6.09709 62 36 28
0.724389 0.0585492 6.11291 154 108 98
0.909918 0.0665076 6.15314 24 6 2
0.940851 0.268714 6.38041 96 68 66
0.437929 -0.802851 6.54742 84 88 32
1.27103 -0.512923 6.14641 134 138 88
0.712597 -0.253257 6.2498 55 58 15
0.479646 -0.232839 6.26833 76 58 41
1.13007 -0.192466 6.29782 124 81 58
1.03142 -0.0440267 6.23219 87 49 18
0.777852 -0.0279277 6.11898 20 6 2
0.818059 -0.014704 6.06763 68 42 36
0.839409 -0.0160492 6.03672 99 69 62
0.825511 0.00718395 6.09457 58 32 25
0.723342 0.0569049 6.11062 132 86 74
0.81247 0.089385 6.1325 108 86 80
0.702797 0.0988102 6.13165 24 6 2
0.906951 0.168943 6.22487 34 14 14
0.695845 0.197942 6.22212 118 96 90
0.790836 0.253074 6.2439 58 14 7
1.31057 -0.527577 6.10511 156 159 114
0.60073 -0.368331 6.24772 120 124 79
0.970277 -0.289028 6.1972 70 74 62
0.721087 -0.25246 6.20785 49 53 14
0.485664 -0.231421 6.25383 60 40 20
1.01583 -0.0408421 6.21048 30 9 3
1.0308 -0.0424306 6.22467 86 48 17
0.825165 -0.0500483 6.11311 82 61 49
1.01272 -0.0238485 6.06885 56 31 16
0.782426 -0.0290237 6.09964 13 5 0
1.04595 0.00905031 6.27362 70 45 36
1.05874 0.018537 6.40028 151 139 127
0.723139 0.0582281 6.11244 128 80 70
0.689916 0.108779 6.17635 18 5 5
0.904541 0.12843 6.19226 86 63 59
0.57181 -0.392716 6.23813 84 87 50
1.02798 -0.0552667 6.27957 141 92 69
0.782752 -0.0294973 6.09981 22 10 5
0.697551 0.26039 6.28089 112 82 77
0.67862 -0.303763 6.30314 154 158 110
0.484465 -0.231588 6.26029 80 60 40
1.04559 -0.168558 6.39161 136 117 101
0.782806 -0.0453352 5.93588 10 6 2
0.944633 0.0451781 6.08085 46 20 17
0.692144 0.259367 6.28674 84 38 30
1.0879 0.128349 5.8184 86 56 38
0.428747 -0.808672 6.5642 88 90 36
0.536589 -0.711523 6.46213 120 122 77
0.603369 -0.509118 6.33217 108 114 71
0.91702 0.0408204 6.14064 41 10 3
0.789746 0.147047 6.14616 106 58 48
0.559536 -0.682803 6.44202 110 115 70
0.6551 -0.281506 6.23051 82 86 56
0.270039 -0.289103 6.33516 80 60 10
1.04931 -0.058646 6.25619 122 74 49
1.02571 0.00202342 6.24706 146 120 110
1.02511 -0.00197733 6.07278 78 46 37
0.800314 0.304007 6.26485 76 42 38
0.790207 0.145891 6.14574 94 48 38
0.363209 -0.568644 6.12547 34 38 18
0.690178 0.266925 6.30261 104 70 64
0.702916 -0.25803 6.26887 50 53 14
0.778916 0.311853 6.28948 46 12 6
0.820653 -0.311446 6.30733 110 114 74
1.06433 -0.115404 6.4481 98 64 32
0.528445 -0.397375 6.1998 78 80 58
0.636412 0.0732739 6.2092 108 92 75
0.716052 -0.243002 6.4699 110 111 71
0.661349 0.0343936 6.35404 66 42 26
1.12065 -0.293052 6.38042 118 128 82
0.912594 -0.56578 6.36968 118 125 78
0.409504 -0.540625 6.14525 102 102 60
0.781661 -0.31523 6.18714 128 129 90
0.750613 -0.212997 5.77807 74 73 34
0.696428 0.199897 6.23936 44 12 10
0.792589 0.313606 6.28575 59 19 10
0.775866 -0.194643 6.03988 126 130 97
0.840636 -0.0290685 6.06153 52 34 30
0.703095 -0.20289 6.06857 156 156 106
1.06449 -0.138919 6.24987 102 94 62
0.565481 -0.671133 6.43792 144 151 104
0.654597 -0.48515 6.31993 93 105 62
0.715367 -0.22006 6.08607 105 108 70
0.714183 -0.20393 6.05576 158 157 120
1.09718 -0.154928 6.24605 128 85 68
1.06186 -0.114563 6.25235 76 42 14
0.824446 -0.0472026 6.10599 34 14 6
0.883579 0.2683 6.28657 132 105 104
0.339221 -0.59631 6.14947 150 148 102
0.703995 -0.283587 6.259 164 162 118
0.716178 -0.233454 6.12991 109 112 72
1.05534 -0.113032 6.28042 121 86 54
0.824949 -0.0342263 6.08658 38 12 2
0.539069 -0.7108 6.46516 124 127 80
0.654809 -0.55156 6.3956 120 128 80
0.691164 -0.291523 6.27259 123 125 78
0.498442 -0.281318 6.33317 122 125 74
1.0506 -0.101961 6.32741 51 23 8
1.05508 -0.0259758 6.16831 110 74 58
0.986832 0.114972 6.27345 107 85 84
0.543141 -0.700714 6.47507 147 150 102
0.693034 -0.411326 6.2835 102 109 75
0.622722 -0.34869 6.26756 102 108 62
0.637558 -0.210238 6.20188 114 118 74
0.747446 -0.0142738 5.84604 107 115 93
0.907778 0.172007 6.22616 32 12 10
0.621886 -0.349332 6.26659 110 116 71
0.692946 -0.290245 6.29136 161 162 116
1.04829 -0.159514 6.41639 126 101 78
1.06887 -0.138182 6.29397 150 150 114
1.04855 -0.103048 6.26561 34 14 6
1.01628 -0.0414715 6.22872 28 10 4
0.786258 -0.0253306 6.04874 79 54 44
0.617746 -0.350556 6.27575 90 96 55
0.696098 -0.291502 6.25862 142 143 98
1.06172 -0.124539 6.32206 100 62 32
0.944535 0.154406 6.23259 56 24 20
1.07031 0.174917 6.03714 104 77 60
0.702224 -0.2887 6.23782 164 165 118
0.938497 0.094786 6.22424 34 14 9
0.696604 0.141432 6.19482 18 6 4
0.771768 -0.350345 6.22715 158 165 116
0.697896 -0.265023 6.27965 42 51 13
0.797394 -0.0150499 6.1574 61 40 34
1.03061 -0.134617 5.15983 82 66 36
1.03247 0.0122832 6.17568 129 106 91
0.895346 -0.415133 6.30769 117 116 80
0.779496 -0.288207 6.45394 139 135 104
0.895024 -0.400585 6.23012 143 148 104
0.942361 -0.851342 6.53079 81 84 30
1.31431 -0.530298 6.12023 126 129 87
1.2897 -0.509604 6.12473 136 134 100
1.23522 -0.498482 6.16166 146 146 104
0.62436 -0.321428 6.22595 68 75 48
1.16301 -0.306851 6.36286 84 90 48
0.483856 -0.205664 6.2446 137 124 80
0.504131 -0.147456 6.15886 138 97 74
0.728439 -0.0126154 5.9822 129 96 68
0.681628 0.0621204 6.13519 121 88 78
0.693504 0.0604773 6.11968 45 11 4
0.680222 0.0658271 6.141 114 84 77
0.726915 0.0372773 5.83687 126 128 110
0.687102 0.104375 6.17422 30 4 0
0.694439 0.203175 6.24635 47 13 10
0.963524 0.205824 6.32396 120 95 96
0.936444 0.265176 6.37521 55 25 24
0.932645 0.315131 6.38289 128 98 96
0.933753 0.318372 6.4011 81 51 48
0.935477 0.337341 6.46482 92 68 64
0.921692 0.322843 6.40939 56 26 24
0.795409 0.309502 6.29523 113 82 79
0.80177 0.370053 6.34254 118 71 60
0.760081 0.379556 6.34849 90 43 24
1.07261 -0.727343 6.38349 73 88 40
1.28111 -0.508485 6.13484 134 134 90
1.06948 -0.356659 6.1774 81 90 70
0.63074 -0.302274 6.22152 71 76 48
1.16289 -0.307272 6.36236 90 96 52
0.460459 -0.29803 6.33307 102 101 47
0.682215 -0.217927 6.1536 150 150 110
0.748025 -0.0054437 5.93099 141 96 69
0.751532 -0.0148955 5.83664 108 114 92
0.83101 0.00594993 6.08165 42 16 6
0.677394 0.0673399 6.16082 44 12 5
0.642128 0.111236 6.19174 116 76 58
0.682865 0.133946 6.19309 115 84 74
0.703218 0.31535 6.32315 125 82 76
0.584368 -0.609824 6.38168 92 100 67
1.30558 -0.49565 6.07519 44 53 24
0.824907 -0.420303 6.11608 99 104 54
0.695134 -0.409909 6.27973 102 110 74
0.609948 -0.349656 6.23256 78 84 54
0.647283 -0.316482 6.24046 78 82 49
0.264726 -0.291171 6.33918 94 72 27
0.718154 -0.23347 6.12031 93 94 58
0.681109 0.0418853 6.13374 33 11 4
0.740945 0.0158031 5.80913 104 107 86
0.681054 0.063155 6.13734 115 85 77
0.683824 0.0667532 6.14943 48 14 7
0.724075 0.0332929 5.84692 34 44 24
1.03123 0.100733 6.45967 127 114 104
0.679325 0.102145 6.1529 27 8 2
1.04759 0.0830088 5.96717 82 72 54
0.906369 0.170465 6.22314 32 14 12
0.697515 0.202491 6.24332 50 14 8
0.936297 0.2688 6.3742 91 62 60
0.885558 0.256057 6.2759 114 84 82
0.933768 0.317095 6.4026 84 52 48
0.938277 0.334221 6.44378 82 56 54
0.793289 0.371259 6.34337 84 42 35
0.458796 -0.299595 6.33257 118 117 61
0.770302 -0.16841 6.01247 114 120 90
0.743948 -0.146004 6.26674 30 16 4
0.707592 0.026967 6.05792 100 64 52
0.741609 0.0170538 5.8063 104 107 86
0.67756 0.0638578 6.14332 111 82 73
0.89245 0.172938 6.22397 49 16 10
0.952582 0.264456 6.35366 43 16 14
0.579021 -0.390655 6.22452 97 101 63
0.600115 -0.368865 6.24741 106 109 64
0.472522 -0.226623 6.30733 146 134 86
0.840014 -0.0257849 6.0615 24 7 2
0.740316 0.0173291 5.80575 100 101 79
0.450496 -0.791345 6.52034 86 88 34
0.312641 -0.307053 6.32112 52 46 12
0.693445 -0.217906 6.11392 152 152 104
0.715436 -0.0375153 6.09502 18 13 8
1.28224 -0.4981 6.08971 156 159 104
0.824481 -0.41481 6.10939 92 98 49
0.692506 0.145573 6.19921 19 3 2
0.591199 0.305497 6.40174 114 84 68
0.765799 0.373299 6.36323 119 66 48
0.849232 0.31787 6.17639 115 76 72
0.81561 -0.419138 6.13617 94 100 52
0.302699 -0.308202 6.33318 76 68 30
0.698083 0.141624 6.19129 21 6 4
0.961784 0.312813 6.43877 86 54 48
1.33066 -0.532194 6.11661 73 82 52
1.30693 -0.523461 6.1205 100 108 66
1.28276 -0.505685 6.12169 124 124 84
1.06797 -0.387497 5.69996 106 107 62
0.682305 0.13616 6.19506 116 86 76
0.884777 0.265504 6.28042 122 94 92
1.31386 -0.531659 6.12626 154 156 116
1.08835 -0.347486 5.52744 91 94 52
